# .PCD v0.7 - Point Cloud Data file format
VERSION 0.7
FIELDS x y z rgba
SIZE 4 4 4 4
TYPE F F F U
COUNT 1 1 1 1
WIDTH 1120
HEIGHT 1
VIEWPOINT 0 0 0 1 0 0 0
POINTS 1120
DATA ascii
0.032408569 0.19274572 0.597 11511703
0.034682855 0.19274572 0.597 11577754
0.036957141 0.19274572 0.597 11578015
0.039297149 0.19306858 0.59800005 11709087
0.041575242 0.19306858 0.59800005 11774102
0.043853339 0.19306858 0.59800005 11642252
0.046131432 0.19306858 0.59800005 11443338
0.048328571 0.19274572 0.597 11312011
0.050602857 0.19274572 0.597 11246222
0.052965719 0.19306858 0.59800005 11115412
0.055336196 0.19339144 0.59900004 11181205
-0.056005716 0.18951431 0.59400004 11246729
-0.053652387 0.18919525 0.59300005 11247241
-0.051480003 0.18951431 0.59400004 11247244
-0.049300004 0.18983334 0.59500003 11246477
-0.047112383 0.19015238 0.59600002 11180688
-0.044841904 0.19015238 0.59600002 11180939
-0.042428575 0.18951431 0.59400004 11115905
-0.040165719 0.18951431 0.59400004 11048320
-0.038094286 0.19047143 0.597 10982020
-0.03582 0.19047143 0.597 10982277
-0.033489525 0.19015238 0.59600002 11047814
-0.03121905 0.19015238 0.59600002 11178882
-0.028948572 0.19015238 0.59600002 11310212
-0.026678097 0.19015238 0.59600002 11310213
-0.02440762 0.19015238 0.59600002 11310726
-0.022100002 0.18983334 0.59500003 11377033
-0.019833334 0.18983334 0.59500003 11442827
-0.017596191 0.19015238 0.59600002 11573380
-0.015325715 0.19015238 0.59600002 11573121
-0.013077143 0.19047143 0.597 11508101
-0.010802858 0.19047143 0.597 11443589
-0.0085285716 0.19047143 0.597 11312781
-0.0062542856 0.19047143 0.597 11246983
-0.00398 0.19047143 0.597 11181705
-0.0017057143 0.19047143 0.597 11181707
0.00056857144 0.19047143 0.597 11181449
0.0028428573 0.19047143 0.597 11247240
0.005117143 0.19047143 0.597 11378319
0.0073790476 0.19015238 0.59600002 11510165
0.0096495235 0.19015238 0.59600002 11642009
0.01192 0.19015238 0.59600002 11707803
0.014190476 0.19015238 0.59600002 11773592
0.016488571 0.19047143 0.597 11708046
0.018762857 0.19047143 0.597 11643783
0.021072382 0.19079049 0.59800005 11576460
0.023389526 0.19110952 0.59900004 11573908
0.025714288 0.19142859 0.60000002 11642009
0.027953334 0.19110952 0.59900004 11577241
0.03023524 0.19110952 0.59900004 11576980
0.032517143 0.19110952 0.59900004 11577237
0.034799047 0.19110952 0.59900004 11511960
0.037142858 0.19142859 0.60000002 11512470
0.039428573 0.19142859 0.60000002 11577997
0.041714288 0.19142859 0.60000002 11577482
0.044 0.19142859 0.60000002 11445129
0.046285715 0.19142859 0.60000002 11377034
0.04857143 0.19142859 0.60000002 11377033
0.050941907 0.19174762 0.60100001 11312270
0.053231429 0.19174762 0.60100001 11246741
0.055520952 0.19174762 0.60100001 11312273
-0.056194287 0.1878819 0.59600002 11180941
-0.053923812 0.1878819 0.59600002 11180938
-0.051653333 0.1878819 0.59600002 11115659
-0.049465712 0.18819714 0.597 11115662
-0.047112383 0.1878819 0.59600002 11115407
-0.044992384 0.1885124 0.59800005 11115916
-0.042714287 0.1885124 0.59800005 11115394
-0.040503811 0.18882763 0.59900004 11048065
-0.038221907 0.18882763 0.59900004 10982019
-0.035940003 0.18882763 0.59900004 10982023
-0.033601906 0.1885124 0.59800005 11048061
-0.031271428 0.18819714 0.597 11178881
-0.028997144 0.18819714 0.597 11244676
-0.026722858 0.18819714 0.597 11245192
-0.024489526 0.1885124 0.59800005 11311239
-0.022248574 0.18882763 0.59900004 11377032
-0.019966668 0.18882763 0.59900004 11442826
-0.017684761 0.18882763 0.59900004 11509124
-0.015402857 0.18882763 0.59900004 11508355
-0.013120953 0.18882763 0.59900004 11442560
-0.010839048 0.18882763 0.59900004 11377540
-0.0085571436 0.18882763 0.59900004 11312777
-0.0062647625 0.1885124 0.59800005 11246992
-0.0039933338 0.18882763 0.59900004 11246991
-0.0017114287 0.18882763 0.59900004 11181452
0.00057047623 0.18882763 0.59900004 11181707
0.002852381 0.18882763 0.59900004 11247499
0.0051342859 0.18882763 0.59900004 11444624
0.00740381 0.1885124 0.59800005 11575696
0.0096980957 0.18882763 0.59900004 11707029
0.011960001 0.1885124 0.59800005 11707290
0.014214286 0.18819714 0.597 11707795
0.016516192 0.1885124 0.59800005 11641993
0.018794287 0.1885124 0.59800005 11642244
0.021107621 0.18882763 0.59900004 11575440
0.023428572 0.18914287 0.60000002 11575450
0.025800001 0.18977335 0.60200006 11577496
0.028000001 0.18914287 0.60000002 11576983
0.030285714 0.18914287 0.60000002 11642773
0.032571428 0.18914287 0.60000002 11642517
0.034915239 0.18945809 0.60100001 11511703
0.037204765 0.18945809 0.60100001 11578005
0.039625715 0.19008859 0.60300004 11643278
0.04192286 0.19008859 0.60300004 11577483
0.044220004 0.19008859 0.60300004 11510922
0.046517145 0.19008859 0.60300004 11443085
0.04889524 0.19040382 0.60400003 11376781
0.051196195 0.19040382 0.60400003 11442831
0.053497147 0.19040382 0.60400003 11377808
0.055798095 0.19040382 0.60400003 11443087
-0.05628857 0.18592285 0.597 11181196
-0.054104768 0.18623431 0.59800005 11246730
-0.051826671 0.18623431 0.59800005 11181193
-0.049631432 0.18654573 0.59900004 11180682
-0.047349527 0.18654573 0.59900004 11115147
-0.045142859 0.18685715 0.60000002 11049868
-0.042857144 0.18685715 0.60000002 11049360
-0.040571429 0.18685715 0.60000002 11048073
-0.038285714 0.18685715 0.60000002 10982278
-0.035940003 0.18654573 0.59900004 10982019
-0.033658098 0.18654573 0.59900004 11048065
-0.031376194 0.18654573 0.59900004 11113858
-0.029094286 0.18654573 0.59900004 11179399
-0.026812382 0.18654573 0.59900004 11245452
-0.024530478 0.18654573 0.59900004 11245708
-0.022285715 0.18685715 0.60000002 11311501
-0.020033333 0.18716858 0.60100001 11443084
-0.017714286 0.18685715 0.60000002 11508617
-0.015428572 0.18685715 0.60000002 11508357
-0.013142857 0.18685715 0.60000002 11508615
-0.010857143 0.18685715 0.60000002 11377290
-0.0085714282 0.18685715 0.60000002 11312783
-0.0062752385 0.18654573 0.59900004 11247758
-0.0040000002 0.18685715 0.60000002 11246992
-0.0017142858 0.18685715 0.60000002 11181195
0.00057142857 0.18685715 0.60000002 11246474
0.0028619049 0.18716858 0.60100001 11312526
0.0051600006 0.18748002 0.60200006 11444371
0.0074533341 0.18748002 0.60200006 11576212
0.0097466679 0.18748002 0.60200006 11707541
0.012040001 0.18748002 0.60200006 11706773
0.014357143 0.18779144 0.60300004 11706767
0.016654287 0.18779144 0.60300004 11641483
0.018982857 0.18810287 0.60400003 11640972
0.021248572 0.18779144 0.60300004 11574158
0.023584763 0.18810287 0.60400003 11641747
0.025885716 0.18810287 0.60400003 11577748
0.028186668 0.18810287 0.60400003 11644311
0.030538097 0.18841429 0.60500002 11708822
0.032951429 0.18903716 0.60700005 11708057
0.035205714 0.18872571 0.60600001 11643289
0.037452381 0.18841429 0.60500002 11708822
0.039757144 0.18841429 0.60500002 11708813
0.042061906 0.18841429 0.60500002 11642763
0.044293337 0.18810287 0.60400003 11575693
0.046671428 0.18841429 0.60500002 11508112
0.049057145 0.18872571 0.60600001 11442316
0.051365715 0.18872571 0.60600001 11442828
0.053674288 0.18872571 0.60600001 11508362
0.055982858 0.18872571 0.60600001 11508870
-0.056477144 0.18426381 0.59900004 11312779
-0.05419524 0.18426381 0.59900004 11377798
-0.051913336 0.18426381 0.59900004 11312007
-0.049714286 0.18457143 0.60000002 11246473
-0.047507618 0.18487905 0.60100001 11180683
-0.045218095 0.18487905 0.60100001 11180429
-0.043000005 0.18518668 0.60200006 11180430
-0.04063905 0.18487905 0.60100001 11113352
-0.038349524 0.18487905 0.60100001 10981764
-0.036000002 0.18457143 0.60000002 11047553
-0.033770476 0.18487905 0.60100001 11113092
-0.031480953 0.18487905 0.60100001 11113350
-0.029191429 0.18487905 0.60100001 11179661
-0.026901904 0.18487905 0.60100001 11179922
-0.024653334 0.18518668 0.60200006 11245715
-0.022360003 0.18518668 0.60200006 11311763
-0.020066667 0.18518668 0.60200006 11378575
-0.017743809 0.18487905 0.60100001 11377807
-0.015480001 0.18518668 0.60200006 11509128
-0.013208573 0.18549429 0.60300004 11574917
-0.010929525 0.18580191 0.60400003 11509131
-0.0086142868 0.18549429 0.60300004 11312528
-0.0063276193 0.18580191 0.60400003 11247249
-0.0040133335 0.18518668 0.60200006 11247240
-0.0017228572 0.18549429 0.60300004 11246723
0.00057523814 0.18580191 0.60400003 11312517
0.0028809526 0.18610953 0.60500002 11378573
0.0051857145 0.18610953 0.60500002 11443854
0.0075152386 0.18672478 0.60700005 11510410
0.0097952383 0.18610953 0.60500002 11576973
0.012080001 0.18580191 0.60400003 11642002
0.014404762 0.18610953 0.60500002 11707537
0.016709523 0.18610953 0.60500002 11642508
0.019045714 0.18641715 0.60600001 11575185
0.021354286 0.18641715 0.60600001 11640216
0.023623809 0.18610953 0.60500002 11707543
0.025971429 0.18641715 0.60600001 11642777
0.028279999 0.18641715 0.60600001 11642265
0.030639049 0.18672478 0.60700005 11708056
0.033005714 0.1870324 0.60800004 11642771
0.035321906 0.1870324 0.60800004 11643278
0.037576191 0.18672478 0.60700005 11643023
0.039888576 0.18672478 0.60700005 11643022
0.042200956 0.18672478 0.60700005 11708557
0.044513334 0.18672478 0.60700005 11640716
0.046902861 0.1870324 0.60800004 11573644
0.04921905 0.1870324 0.60800004 11573386
0.051535241 0.1870324 0.60800004 11573895
0.053851429 0.1870324 0.60800004 11639425
0.056167625 0.1870324 0.60800004 11573885
-0.056571428 0.18228573 0.60000002 11312011
-0.054376192 0.18258953 0.60100001 11377541
-0.052086666 0.18258953 0.60100001 11311493
-0.049880005 0.18289335 0.60200006 11246476
-0.047665719 0.18319716 0.60300004 11245964
-0.045293339 0.18289335 0.60200006 11246219
-0.04307143 0.18319716 0.60300004 11179913
-0.040841907 0.18350096 0.60400003 11112063
-0.038477149 0.18319716 0.60300004 11047044
-0.0363 0.18380477 0.60500002 11047560
-0.033995237 0.18380477 0.60500002 11047816
-0.03174286 0.18410857 0.60600001 11179147
-0.029337144 0.18350096 0.60400003 11179916
-0.027036192 0.18350096 0.60400003 11179915
-0.02473524 0.18350096 0.60400003 11311506
-0.022434287 0.18350096 0.60400003 11377300
-0.020133335 0.18350096 0.60400003 11312273
-0.017832382 0.18350096 0.60400003 11377807
-0.015531429 0.18350096 0.60400003 11443595
-0.013296192 0.18441239 0.60700005 11574662
-0.010983811 0.18441239 0.60700005 11574663
-0.008671429 0.18441239 0.60700005 11443854
-0.0063590482 0.18441239 0.60700005 11378318
-0.0040533338 0.18471619 0.60800004 11377289
-0.0017342858 0.18441239 0.60700005 11377543
0.00057904766 0.18471619 0.60800004 11377803
0.0028904765 0.18441239 0.60700005 11379338
0.0052028573 0.18441239 0.60700005 11444623
0.0075276191 0.18471619 0.60800004 11444881
0.0098438095 0.18471619 0.60800004 11577236
0.01216 0.18471619 0.60800004 11643027
0.014452382 0.18441239 0.60700005 11642506
0.016764762 0.18441239 0.60700005 11642506
0.019077145 0.18441239 0.60700005 11640471
0.021389525 0.18441239 0.60700005 11706271
0.023701908 0.18441239 0.60700005 11773339
0.026057145 0.18471619 0.60800004 11708308
0.028513333 0.18562761 0.611 11642518
0.030840952 0.18562761 0.611 11576472
0.033168569 0.18562761 0.611 11576983
0.03549619 0.18562761 0.611 11708309
0.037823807 0.18562761 0.611 11708306
0.040151428 0.18562761 0.611 11643024
0.042339999 0.18502001 0.60900003 11708304
0.044660002 0.18502001 0.60900003 11639440
0.046980001 0.18502001 0.60900003 11638666
0.049300004 0.18502001 0.60900003 11573128
0.051620003 0.18502001 0.60900003 11638663
0.053940002 0.18502001 0.60900003 11704959
0.056260001 0.18502001 0.60900003 11639682
-0.056854293 0.18090001 0.60300004 11311754
-0.054647624 0.18120001 0.60400003 11377796
-0.052433334 0.1815 0.60500002 11377796
-0.050128572 0.1815 0.60500002 11377292
-0.047981907 0.18210001 0.60700005 11377292
-0.045669526 0.18210001 0.60700005 11312015
-0.043357149 0.18210001 0.60700005 11180428
-0.041044764 0.18210001 0.60700005 11047299
-0.038668573 0.18179999 0.60600001 11047556
-0.036420003 0.18210001 0.60700005 10982023
-0.034107622 0.18210001 0.60700005 10982278
-0.031795241 0.18210001 0.60700005 11179146
-0.02948286 0.18210001 0.60700005 11114377
-0.027170479 0.18210001 0.60700005 11180170
-0.024817143 0.18179999 0.60600001 11377032
-0.022545716 0.18210001 0.60700005 11442826
-0.020266667 0.18240002 0.60800004 11377293
-0.017950477 0.18240002 0.60800004 11377294
-0.015608573 0.18210001 0.60700005 11442574
-0.013318096 0.18240002 0.60800004 11508364
-0.011001905 0.18240002 0.60800004 11508366
-0.0086857146 0.18240002 0.60800004 11443341
-0.0063695242 0.18240002 0.60800004 11443853
-0.0040533338 0.18240002 0.60800004 11441799
-0.0017371429 0.18240002 0.60800004 11376008
0.00057999999 0.18270001 0.60900003 11442568
0.0029 0.18270001 0.60900003 11378313
0.005237143 0.18329999 0.611 11444621
0.0075647617 0.18329999 0.611 11510162
0.0098923808 0.18329999 0.611 11575699
0.01222 0.18329999 0.611 11641749
0.014547618 0.18329999 0.611 11707794
0.01682 0.18270001 0.60900003 11640468
0.01914 0.18270001 0.60900003 11639448
0.02146 0.18270001 0.60900003 11641749
0.023780001 0.18270001 0.60900003 11643288
0.026228573 0.18360001 0.61200005 11708308
0.028560003 0.18360001 0.61200005 11708050
0.03089143 0.18360001 0.61200005 11510681
0.033222858 0.18360001 0.61200005 11445655
0.03555429 0.18360001 0.61200005 11642264
0.037885718 0.18360001 0.61200005 11707798
0.040217146 0.18360001 0.61200005 11642259
0.042548575 0.18360001 0.61200005 11576461
0.044953335 0.18390001 0.61300004 11573898
0.047288574 0.18390001 0.61300004 11441284
0.049623813 0.18390001 0.61300004 11442049
0.051959049 0.18390001 0.61300004 11507841
0.054205719 0.18360001 0.61200005 11573377
0.056537148 0.18360001 0.61200005 11508866
-0.057231434 0.17978764 0.60700005 11377549
-0.054919053 0.17978764 0.60700005 11443338
-0.052693337 0.18008383 0.60800004 11443849
-0.05046 0.18038 0.60900003 11443340
-0.048140001 0.18038 0.60900003 11442827
-0.045820002 0.18038 0.60900003 11377798
-0.043428574 0.18008383 0.60800004 11179398
-0.041112382 0.18008383 0.60800004 11047053
-0.038796194 0.18008383 0.60800004 11047822
-0.036480002 0.18008383 0.60800004 10982789
-0.03416381 0.18008383 0.60800004 11113601
-0.031847622 0.18008383 0.60800004 11310208
-0.029531429 0.18008383 0.60800004 11245188
-0.02726 0.18038 0.60900003 11179909
-0.025021905 0.18097238 0.611 11312005
-0.022694286 0.18097238 0.611 11378063
-0.020400003 0.18126859 0.61200005 11377806
-0.018039048 0.18097238 0.611 11311755
-0.015660001 0.18038 0.60900003 11377290
-0.013383809 0.18097238 0.611 11377551
-0.01102 0.18038 0.60900003 11377552
-0.0086857146 0.18008383 0.60800004 11312011
-0.006411429 0.18126859 0.61200005 11312514
-0.0040733335 0.18097238 0.611 11377027
-0.0017485716 0.18126859 0.61200005 11376778
0.00058285717 0.18126859 0.61200005 11443338
0.0029142858 0.18126859 0.61200005 11443596
0.0052457144 0.18126859 0.61200005 11509647
0.0075895241 0.18156476 0.61300004 11575440
0.009924762 0.18156476 0.61300004 11575184
0.012260001 0.18156476 0.61300004 11575441
0.014595238 0.18156476 0.61300004 11706776
0.016930476 0.18156476 0.61300004 11705745
0.019265717 0.18156476 0.61300004 11575449
0.021600954 0.18156476 0.61300004 11576990
0.02397524 0.18186095 0.61400002 11577502
0.026271429 0.18156476 0.61300004 11643034
0.028606668 0.18156476 0.61300004 11642775
0.030992381 0.18186095 0.61400002 11509916
0.033277143 0.18156476 0.61300004 11444891
0.035612382 0.18156476 0.61300004 11511447
0.038009524 0.18186095 0.61400002 11577491
0.040414285 0.18215714 0.61500001 11642508
0.042826667 0.18245335 0.61600006 11575177
0.045173336 0.18245335 0.61600006 11442817
0.047597148 0.18274952 0.61700004 11310454
0.049947623 0.18274952 0.61700004 11311482
0.052298095 0.18274952 0.61700004 11442304
0.054560006 0.18245335 0.61600006 11443076
0.056814287 0.18215714 0.61500001 11443333
-0.057420004 0.17806001 0.60900003 11377549
-0.055100001 0.17806001 0.60900003 11377546
-0.052953333 0.17864476 0.611 11377544
-0.050708573 0.17893715 0.61200005 11377546
-0.048377149 0.17893715 0.61200005 11377035
-0.046045717 0.17893715 0.61200005 11376767
-0.043714289 0.17893715 0.61200005 11244929
-0.04138286 0.17893715 0.61200005 11047306
-0.039051428 0.17893715 0.61200005 11048079
-0.036720004 0.17893715 0.61200005 11113609
-0.034388572 0.17893715 0.61200005 11179138
-0.032004762 0.17864476 0.611 11310207
-0.029774288 0.17922953 0.61300004 11310978
-0.027394287 0.17893715 0.61200005 11180676
-0.025103811 0.17922953 0.61300004 11246730
-0.022768572 0.17922953 0.61300004 11312787
-0.020433335 0.17922953 0.61300004 11377814
-0.018068573 0.17893715 0.61200005 11312013
-0.015737144 0.17893715 0.61200005 11312012
-0.013405715 0.17893715 0.61200005 11312269
-0.011074287 0.17893715 0.61200005 11312519
-0.0087571433 0.17922953 0.61300004 11246980
-0.006421905 0.17922953 0.61300004 11181442
-0.0041 0.17981429 0.61500001 11246474
-0.0017571428 0.17981429 0.61500001 11378062
0.0005847619 0.1795219 0.61400002 11444365
0.0029285715 0.17981429 0.61500001 11444369
0.0052542859 0.17922953 0.61300004 11509907
0.0076142857 0.17981429 0.61500001 11575448
0.0099733341 0.18010668 0.61600006 11575701
0.012320001 0.18010668 0.61600006 11510419
0.014666668 0.18010668 0.61600006 11576468
0.017013336 0.18010668 0.61600006 11640464
0.01936 0.18010668 0.61600006 11640977
0.021706669 0.18010668 0.61600006 11577239
0.024053335 0.18010668 0.61600006 11577500
0.026400004 0.18010668 0.61600006 11577246
0.028746668 0.18010668 0.61600006 11576989
0.031093335 0.18010668 0.61600006 11575706
0.033440001 0.18010668 0.61600006 11576215
0.035844762 0.18039905 0.61700004 11576725
0.038195241 0.18039905 0.61700004 11642509
0.040480006 0.18010668 0.61600006 11642508
0.042896193 0.18039905 0.61700004 11574924
0.04532 0.18069144 0.61800003 11441540
0.047674287 0.18069144 0.61800003 11376256
0.050109524 0.18098381 0.61900002 11376767
0.052467622 0.18098381 0.61900002 11507838
0.054737143 0.18069144 0.61800003 11508611
0.05709143 0.18069144 0.61800003 11443332
-0.057702862 0.17660573 0.61200005 11312269
-0.05537143 0.17660573 0.61200005 11246731
-0.053040005 0.17660573 0.61200005 11312525
-0.050708573 0.17660573 0.61200005 11312013
-0.048377149 0.17660573 0.61200005 11377034
-0.046120953 0.17689429 0.61300004 11310981
-0.043857146 0.17718287 0.61400002 11179652
-0.041518096 0.17718287 0.61400002 11113093
-0.03924286 0.17747143 0.61500001 11113604
-0.036840003 0.17718287 0.61400002 11113600
-0.034500953 0.17718287 0.61400002 11113853
-0.032161906 0.17718287 0.61400002 11179646
-0.029822858 0.17718287 0.61400002 11245701
-0.027528571 0.17747143 0.61500001 11311753
-0.025185714 0.17747143 0.61500001 11378308
-0.022805715 0.17718287 0.61400002 11378317
-0.020466669 0.17718287 0.61400002 11443601
-0.018098095 0.17689429 0.61300004 11377814
-0.015788572 0.17718287 0.61400002 11377809
-0.013449525 0.17718287 0.61400002 11378063
-0.011110476 0.17718287 0.61400002 11312783
-0.0088000009 0.17776 0.61600006 11181705
-0.0064533339 0.17776 0.61600006 11115404
-0.0041066669 0.17776 0.61600006 11180941
-0.0017600001 0.17776 0.61600006 11377805
0.00058666669 0.17776 0.61600006 11444365
0.0029333336 0.17776 0.61600006 11444371
0.0052800006 0.17776 0.61600006 11509914
0.0076390482 0.17804858 0.61700004 11575707
0.0099733341 0.17776 0.61600006 11510428
0.012340001 0.17804858 0.61700004 11510678
0.014690477 0.17804858 0.61700004 11576724
0.017068572 0.17833716 0.61800003 11642002
0.019422857 0.17833716 0.61800003 11642008
0.021777144 0.17833716 0.61800003 11576979
0.024092382 0.17804858 0.61700004 11577492
0.026442857 0.17804858 0.61700004 11643029
0.028793335 0.17804858 0.61700004 11642005
0.031143812 0.17804858 0.61700004 11641751
0.033548571 0.17833716 0.61800003 11707542
0.035960954 0.17862572 0.61900002 11707795
0.038319048 0.17862572 0.61900002 11642772
0.040677145 0.17862572 0.61900002 11642013
0.043035239 0.17862572 0.61900002 11572872
0.045393337 0.17862572 0.61900002 11441538
0.047828574 0.17891428 0.62 11376254
0.050352383 0.17949145 0.62200004 11442046
0.052721906 0.17949145 0.62200004 11573122
0.055091433 0.17949145 0.62200004 11507592
0.057460956 0.17949145 0.62200004 11442569
-0.057797145 0.17455906 0.61300004 11312523
-0.055552382 0.17484382 0.61400002 11312522
-0.05312667 0.17455906 0.61300004 11378062
-0.050791427 0.17455906 0.61300004 11377289
-0.048456192 0.17455906 0.61300004 11311744
-0.046271428 0.17512858 0.61500001 11245694
-0.044000003 0.17541336 0.61600006 11179394
-0.041653335 0.17541336 0.61600006 11113602
-0.03930667 0.17541336 0.61600006 11048065
-0.036960002 0.17541336 0.61600006 11113856
-0.034669526 0.17569812 0.61700004 11114106
-0.03231905 0.17569812 0.61700004 11179648
-0.029968575 0.17569812 0.61700004 11245444
-0.027618097 0.17569812 0.61700004 11377030
-0.025267622 0.17569812 0.61700004 11443841
-0.022880001 0.17541336 0.61600006 11509382
-0.020533334 0.17541336 0.61600006 11509138
-0.01818667 0.17541336 0.61600006 11443609
-0.015865715 0.17569812 0.61700004 11443863
-0.013537143 0.17598286 0.61800003 11378324
-0.011182858 0.17598286 0.61800003 11312788
-0.008828572 0.17598286 0.61800003 11115408
-0.0064638099 0.17569812 0.61700004 11048080
-0.0041200002 0.17598286 0.61800003 11245457
-0.0017628572 0.17569812 0.61700004 11378064
0.00058761908 0.17569812 0.61700004 11444111
0.0029380955 0.17569812 0.61700004 11444108
0.0052885716 0.17569812 0.61700004 11509648
0.0076514287 0.17598286 0.61800003 11575186
0.0099895243 0.17569812 0.61700004 11575958
0.01238 0.17626762 0.61900002 11576475
0.014738095 0.17626762 0.61900002 11641745
0.01709619 0.17626762 0.61900002 11707030
0.019485716 0.17655239 0.62 11708311
0.021847619 0.17655239 0.62 11708056
0.024209524 0.17655239 0.62 11708307
0.026571428 0.17655239 0.62 11708568
0.028933333 0.17655239 0.62 11708056
0.03129524 0.17655239 0.62 11708052
0.033657141 0.17655239 0.62 11773583
0.036135238 0.17712191 0.62200004 11708305
0.038504764 0.17712191 0.62200004 11642766
0.040874287 0.17712191 0.62200004 11576459
0.043243811 0.17712191 0.62200004 11507326
0.045613337 0.17712191 0.62200004 11441787
0.04806 0.17740667 0.62300003 11441787
0.050433334 0.17740667 0.62300003 11508093
0.052891426 0.17769143 0.62400001 11573377
0.055268571 0.17769143 0.62400001 11507334
0.057645712 0.17769143 0.62400001 11507335
-0.05817429 0.17334764 0.61700004 11312525
-0.055823814 0.17334764 0.61700004 11312523
-0.053300001 0.17278571 0.61500001 11443595
-0.051040005 0.17306668 0.61600006 11377285
-0.04869334 0.17306668 0.61600006 11311233
-0.046421908 0.17334764 0.61700004 11245694
-0.044071428 0.17334764 0.61700004 11179649
-0.041720957 0.17334764 0.61700004 10982788
-0.039370481 0.17334764 0.61700004 10983300
-0.037020002 0.17334764 0.61700004 11048573
-0.034725714 0.17362858 0.61800003 11179643
-0.032423813 0.17390953 0.61900002 11179903
-0.030017143 0.17362858 0.61800003 11245193
-0.027662858 0.17362858 0.61800003 11312014
-0.025308572 0.17362858 0.61800003 11509385
-0.022954287 0.17362858 0.61800003 11575431
-0.020633334 0.17390953 0.61900002 11574665
-0.018304761 0.17419046 0.62 11443342
-0.015942857 0.17419046 0.62 11378578
-0.013624762 0.17475238 0.62200004 11378319
-0.011219047 0.17419046 0.62 11246734
-0.0088571431 0.17419046 0.62 11115151
-0.0064952383 0.17419046 0.62 11114125
-0.0041333335 0.17419046 0.62 11246217
-0.0017685716 0.17390953 0.61900002 11378319
0.00059047621 0.17419046 0.62 11444110
0.0029666668 0.17503333 0.62300003 11444112
0.0053485716 0.17531429 0.62400001 11510159
0.0077009527 0.17475238 0.62200004 11641232
0.010038096 0.17419046 0.62 11642008
0.012440001 0.17475238 0.62200004 11577241
0.014809525 0.17475238 0.62200004 11642000
0.017206667 0.17503333 0.62300003 11707531
0.019579999 0.17503333 0.62300003 11707789
0.021953333 0.17503333 0.62300003 11642515
0.024287619 0.17475238 0.62200004 11642778
0.026657144 0.17475238 0.62200004 11643031
0.029073333 0.17503333 0.62300003 11642520
0.031446666 0.17503333 0.62300003 11643280
0.033928569 0.17559524 0.625 11643024
0.036309522 0.17559524 0.625 11708561
0.038628571 0.17531429 0.62400001 11707542
0.041005712 0.17531429 0.62400001 11575698
0.043382857 0.17531429 0.62400001 11442061
0.045833334 0.17559524 0.625 11376775
0.048214287 0.17559524 0.625 11441802
0.050595239 0.17559524 0.625 11507328
0.053060956 0.1758762 0.62600005 11507843
0.05544572 0.1758762 0.62600005 11442314
0.057830479 0.1758762 0.62600005 11508361
-0.05836286 0.17155142 0.61900002 11377803
-0.056095239 0.17182857 0.62 11312528
-0.053906672 0.17238286 0.62200004 11443855
-0.051537145 0.17238286 0.62200004 11443080
-0.049009521 0.17182857 0.62 11376511
-0.046647619 0.17182857 0.62 11311483
-0.044285715 0.17182857 0.62 11244675
-0.041788574 0.17127429 0.61800003 11113094
-0.039561905 0.17182857 0.62 11048325
-0.0372 0.17182857 0.62 11048831
-0.034950476 0.17238286 0.62200004 11114113
-0.03247619 0.17182857 0.62 11179658
-0.03021143 0.17238286 0.62200004 11180178
-0.027841905 0.17238286 0.62200004 11247252
-0.025472382 0.17238286 0.62200004 11379344
-0.02314 0.17266001 0.62300003 11444622
-0.020766666 0.17266001 0.62300003 11509392
-0.018393334 0.17266001 0.62300003 11443857
-0.016045714 0.17293714 0.62400001 11443345
-0.013690476 0.17321429 0.625 11378319
-0.011309524 0.17321429 0.625 11378309
-0.0089142863 0.17293714 0.62400001 11246218
-0.0065371431 0.17293714 0.62400001 11245451
-0.0041533331 0.17266001 0.62300003 11312261
-0.0017828571 0.17293714 0.62400001 11443596
0.00059428572 0.17293714 0.62400001 11444120
0.0029761905 0.17321429 0.625 11444636
0.0053657144 0.17349145 0.62600005 11510421
0.0077133332 0.17266001 0.62300003 11641231
0.010102857 0.17293714 0.62400001 11641741
0.01248 0.17293714 0.62400001 11576977
0.014880952 0.17321429 0.625 11642764
0.017289525 0.17349145 0.62600005 11642252
0.019705717 0.17376858 0.62700003 11576723
0.022094287 0.17376858 0.62700003 11511448
0.024482857 0.17376858 0.62700003 11511707
0.026742857 0.17293714 0.62400001 11576983
0.029213335 0.17349145 0.62600005 11576727
0.031598095 0.17349145 0.62600005 11642517
0.033982858 0.17349145 0.62600005 11708053
0.036367621 0.17349145 0.62600005 11838868
0.038752384 0.17349145 0.62600005 11773840
0.04107143 0.17321429 0.625 11573896
0.043521907 0.17349145 0.62600005 11377036
0.04590667 0.17349145 0.62600005 11376531
0.048368573 0.17376858 0.62700003 11442069
0.050838094 0.17404571 0.62800002 11508108
0.053230479 0.17404571 0.62800002 11442316
0.05571143 0.17432286 0.62900001 11442318
0.058015238 0.17404571 0.62800002 11508111
-0.058740001 0.17028667 0.62300003 11443341
-0.056366667 0.17028667 0.62300003 11377808
-0.054079998 0.17056 0.62400001 11378062
-0.051702857 0.17056 0.62400001 11377292
-0.049325712 0.17056 0.62400001 11377034
-0.046948571 0.17056 0.62400001 11311490
-0.044571426 0.17056 0.62400001 11309441
-0.042261906 0.17083333 0.625 11243141
-0.039880954 0.17083333 0.625 11244417
-0.037439998 0.17056 0.62400001 11179906
-0.035062857 0.17056 0.62400001 11245189
-0.032633334 0.17028667 0.62300003 11246473
-0.030308573 0.17056 0.62400001 11246730
-0.027976191 0.17083333 0.625 11247753
-0.025595238 0.17083333 0.625 11248519
-0.023214286 0.17083333 0.625 11247758
-0.020833334 0.17083333 0.625 11378318
-0.01845238 0.17083333 0.625 11443855
-0.016071428 0.17083333 0.625 11443601
-0.013712382 0.17110668 0.62600005 11443854
-0.01132762 0.17110668 0.62600005 11509125
-0.0089428574 0.17110668 0.62600005 11442828
-0.0065580956 0.17110668 0.62600005 11376530
-0.0041733338 0.17110668 0.62600005 11376787
-0.0017885716 0.17110668 0.62600005 11443343
0.00059619051 0.17110668 0.62600005 11509646
0.0029809524 0.17110668 0.62600005 11510161
0.0053742859 0.17138 0.62700003 11510925
0.0077628572 0.17138 0.62700003 11511436
0.010167619 0.17165335 0.62800002 11641993
0.012580001 0.17192666 0.62900001 11641741
0.01497619 0.17192666 0.62900001 11576975
0.017344762 0.17165335 0.62800002 11577490
0.019737143 0.17165335 0.62800002 11445904
0.022164762 0.17192666 0.62900001 11445912
0.024560953 0.17192666 0.62900001 11511194
0.02687143 0.17138 0.62700003 11576729
0.029306667 0.17165335 0.62800002 11641755
0.031699046 0.17165335 0.62800002 11642265
0.034091428 0.17165335 0.62800002 11708056
0.036483813 0.17165335 0.62800002 11773327
0.038814288 0.17138 0.62700003 11773570
0.041137148 0.17110668 0.62600005 11574139
0.043660954 0.17165335 0.62800002 11507330
0.046126667 0.17192666 0.62900001 11441804
0.048754286 0.17274667 0.63200003 11442061
0.051161904 0.17274667 0.63200003 11442571
0.053484764 0.17247334 0.63100004 11442571
0.055977143 0.17274667 0.63200003 11508106
0.058292385 0.17247334 0.63100004 11508105
-0.058928572 0.16845238 0.625 11442316
-0.056547619 0.16845238 0.625 11442320
-0.054253336 0.16872193 0.62600005 11442578
-0.051868577 0.16872193 0.62600005 11442833
-0.049483813 0.16872193 0.62600005 11442575
-0.04709905 0.16872193 0.62600005 11311496
-0.044714291 0.16872193 0.62600005 11309956
-0.042329527 0.16872193 0.62600005 11374977
-0.039944764 0.16872193 0.62600005 11375231
-0.037560005 0.16872193 0.62600005 11309956
-0.035175238 0.16872193 0.62600005 11244933
-0.032790478 0.16872193 0.62600005 11311490
-0.030405717 0.16872193 0.62600005 11246977
-0.028020956 0.16872193 0.62600005 11312765
-0.025677145 0.16899143 0.62700003 11314306
-0.023251429 0.16872193 0.62600005 11313290
-0.020866668 0.16872193 0.62600005 11378062
-0.018481907 0.16872193 0.62600005 11378061
-0.016097143 0.16872193 0.62600005 11378569
-0.01375619 0.16926095 0.62800002 11378311
-0.01136381 0.16926095 0.62800002 11442569
-0.0089714285 0.16926095 0.62800002 11442311
-0.0065790475 0.16926095 0.62800002 11376776
-0.0041866666 0.16926095 0.62800002 11311505
-0.0017971429 0.16953048 0.62900001 11378322
0.00059904763 0.16953048 0.62900001 11444111
0.0029904763 0.16926095 0.62800002 11444367
0.0053914287 0.16953048 0.62900001 11510668
0.0078371428 0.17060858 0.63300002 11511443
0.010216191 0.17006953 0.63100004 11642264
0.01264 0.17033905 0.63200003 11642254
0.01504762 0.17033905 0.63200003 11642255
0.01742762 0.17006953 0.63100004 11642509
0.01983143 0.17006953 0.63100004 11511438
0.022270476 0.17033905 0.63200003 11446670
0.02463905 0.17006953 0.63100004 11446928
0.027042858 0.17006953 0.63100004 11642518
0.029446669 0.17006953 0.63100004 11772569
0.031850476 0.17006953 0.63100004 11773337
0.034254286 0.17006953 0.63100004 11708570
0.036658097 0.17006953 0.63100004 11642516
0.039061908 0.17006953 0.63100004 11641726
0.041662857 0.1708781 0.634 11509371
0.044008572 0.17060858 0.63300002 11507331
0.04642 0.17060858 0.63300002 11507334
0.048831429 0.17060858 0.63300002 11442055
0.051242858 0.17060858 0.63300002 11377032
0.053654287 0.17060858 0.63300002 11442566
0.056154288 0.1708781 0.634 11442569
0.058477145 0.17060858 0.63300002 11508619
-0.059117146 0.16660286 0.62700003 11376779
-0.056728572 0.16660286 0.62700003 11377293
-0.054340001 0.16660286 0.62700003 11377045
-0.051951431 0.16660286 0.62700003 11377294
-0.04956286 0.16660286 0.62700003 11377029
-0.047174286 0.16660286 0.62700003 11377026
-0.044785716 0.16660286 0.62700003 11376512
-0.042464763 0.16686858 0.62800002 11374977
-0.040072381 0.16686858 0.62800002 11375235
-0.03774 0.16713428 0.62900001 11310211
-0.035287622 0.16686858 0.62800002 11245192
-0.032947619 0.16713428 0.62900001 11311487
-0.030551426 0.16713428 0.62900001 11377278
-0.028110476 0.16686858 0.62800002 11443072
-0.025759049 0.16713428 0.62900001 11443585
-0.023325715 0.16686858 0.62800002 11378057
-0.020933334 0.16686858 0.62800002 11312270
-0.018540952 0.16686858 0.62800002 11312520
-0.016174285 0.16713428 0.62900001 11312516
-0.013821905 0.16766572 0.63100004 11313030
-0.011418096 0.16766572 0.63100004 11311755
-0.0090142861 0.16766572 0.63100004 11377287
-0.0066104764 0.16766572 0.63100004 11377287
-0.0042133336 0.16793142 0.63200003 11442831
-0.0018085715 0.16819715 0.63300002 11443604
0.00060380955 0.16846286 0.634 11444120
0.0030142856 0.16819715 0.63300002 11509907
0.0054257144 0.16819715 0.63300002 11641491
0.0078495238 0.16846286 0.634 11642261
0.010248572 0.16819715 0.63300002 11576985
0.01266 0.16819715 0.63300002 11642513
0.015071429 0.16819715 0.63300002 11707275
0.017482858 0.16819715 0.63300002 11772040
0.019894285 0.16819715 0.63300002 11640202
0.022305716 0.16819715 0.63300002 11510924
0.024717143 0.16819715 0.63300002 11511693
0.027128572 0.16819715 0.63300002 11642774
0.029586667 0.16846286 0.634 11773592
0.031951427 0.16819715 0.63300002 11773592
0.034417141 0.16846286 0.634 11708572
0.036774289 0.16819715 0.63300002 11577505
0.039247617 0.16846286 0.634 11575671
0.041728575 0.16872858 0.63500005 11574398
0.044147622 0.16872858 0.63500005 11572866
0.046566669 0.16872858 0.63500005 11573124
0.048908573 0.16846286 0.634 11507590
0.051323809 0.16846286 0.634 11442569
0.053739045 0.16846286 0.634 11377032
0.056242861 0.16872858 0.63500005 11377037
0.058661908 0.16872858 0.63500005 11443088
-0.059494291 0.16526191 0.63100004 11312014
-0.05709048 0.16526191 0.63100004 11312018
-0.054513335 0.1647381 0.62900001 11377811
-0.052282859 0.16526191 0.63100004 11377292
-0.049879052 0.16526191 0.63100004 11377277
-0.047475241 0.16526191 0.63100004 11442301
-0.045071434 0.16526191 0.63100004 11507326
-0.04266762 0.16526191 0.63100004 11441276
-0.040263813 0.16526191 0.63100004 11441018
-0.037920002 0.16552381 0.63200003 11310722
-0.035456195 0.16526191 0.63100004 11245190
-0.033052381 0.16526191 0.63100004 11376514
-0.030648574 0.16526191 0.63100004 11442821
-0.028289525 0.16552381 0.63200003 11509647
-0.025922857 0.16578571 0.63300002 11575181
-0.023474285 0.16552381 0.63200003 11509903
-0.021066668 0.16552381 0.63200003 11378577
-0.018629525 0.16526191 0.63100004 11378318
-0.01625143 0.16552381 0.63200003 11378056
-0.013843809 0.16552381 0.63200003 11312518
-0.01143619 0.16552381 0.63200003 11312518
-0.0090285717 0.16552381 0.63200003 11377288
-0.0066209524 0.16552381 0.63200003 11377292
-0.0042266669 0.16604762 0.634 11443089
-0.0018114285 0.16604762 0.634 11509400
0.00060476194 0.16630954 0.63500005 11574939
0.0030238098 0.16630954 0.63500005 11706520
0.0054428577 0.16630954 0.63500005 11772561
0.0078619057 0.16630954 0.63500005 11707282
0.010280953 0.16630954 0.63500005 11642004
0.01268 0.16604762 0.634 11707281
0.015095239 0.16604762 0.634 11707275
0.017538097 0.16630954 0.63500005 11707273
0.019957144 0.16630954 0.63500005 11640205
0.022376193 0.16630954 0.63500005 11641485
0.02479524 0.16630954 0.63500005 11577230
0.027214289 0.16630954 0.63500005 11577493
0.029680001 0.16657144 0.63600004 11708057
0.032102857 0.16657144 0.63600004 11708569
0.034525715 0.16657144 0.63600004 11643034
0.036890481 0.16630954 0.63500005 11577259
0.039371431 0.16657144 0.63600004 11574910
0.041925713 0.16709523 0.63800001 11573636
0.04435619 0.16709523 0.63800001 11572102
0.046640005 0.16657144 0.63600004 11507332
0.049062859 0.16657144 0.63600004 11442312
0.051485714 0.16657144 0.63600004 11377290
0.054078095 0.16709523 0.63800001 11377543
0.056508571 0.16709523 0.63800001 11443081
0.058939047 0.16709523 0.63800001 11443081
-0.059777141 0.16363238 0.634 11377803
-0.057271428 0.16337429 0.63300002 11443343
-0.054773334 0.16311619 0.63200003 11508364
-0.052448574 0.16337429 0.63300002 11442828
-0.050037142 0.16337429 0.63300002 11376779
-0.047625713 0.16337429 0.63300002 11442309
-0.045285713 0.16363238 0.634 11507589
-0.042938098 0.16389048 0.63500005 11507072
-0.040519048 0.16389048 0.63500005 11506815
-0.038040001 0.16363238 0.634 11441530
-0.035568573 0.16337429 0.63300002 11376001
-0.033157144 0.16337429 0.63300002 11376261
-0.030794285 0.16363238 0.634 11442570
-0.028379047 0.16363238 0.634 11574921
-0.025963809 0.16363238 0.634 11575178
-0.023511428 0.16337429 0.63300002 11508875
-0.0211 0.16337429 0.63300002 11508619
-0.018688573 0.16337429 0.63300002 11508876
-0.016328571 0.16389048 0.63500005 11443849
-0.013887619 0.16363238 0.634 11443333
-0.011472382 0.16363238 0.634 11378053
-0.0090571428 0.16363238 0.634 11377543
-0.0066523813 0.16389048 0.63500005 11377035
-0.0042333333 0.16389048 0.63500005 11443346
-0.0018171429 0.16414857 0.63600004 11509908
0.00060571433 0.16414857 0.63600004 11640980
0.0030285716 0.16414857 0.63600004 11771794
0.0054514292 0.16414857 0.63600004 11772818
0.0078742858 0.16414857 0.63600004 11707283
0.010297143 0.16414857 0.63600004 11707283
0.012700001 0.16389048 0.63500005 11707534
0.015142857 0.16414857 0.63600004 11707788
0.017565714 0.16414857 0.63600004 11444873
0.020051429 0.16466478 0.63800001 11575440
0.022481905 0.16466478 0.63800001 11904143
0.024912382 0.16466478 0.63800001 11708052
0.027342858 0.16466478 0.63800001 11708310
0.029820003 0.16492288 0.63900006 11774104
0.032304764 0.16518097 0.64000005 11839385
0.034742858 0.16518097 0.64000005 11708310
0.037239049 0.16543905 0.64100003 11642253
0.039680954 0.16543905 0.64100003 11640203
0.042057145 0.16518097 0.64000005 11507593
0.044564765 0.16543905 0.64100003 11442056
0.046933334 0.16518097 0.64000005 11376775
0.049448572 0.16543905 0.64100003 11311490
0.051890481 0.16543905 0.64100003 11311741
0.054332383 0.16543905 0.64100003 11377019
0.056685716 0.16518097 0.64000005 11443074
0.05921619 0.16543905 0.64100003 11509376
-0.059777141 0.16121714 0.634 11442829
-0.057361905 0.16121714 0.634 11443598
-0.054946665 0.16121714 0.634 11443596
-0.052614287 0.16147144 0.63500005 11443084
-0.050195243 0.16147144 0.63500005 11377293
-0.047776196 0.16147144 0.63500005 11442569
-0.045357145 0.16147144 0.63500005 11507847
-0.043005716 0.16172573 0.63600004 11507333
-0.040582858 0.16172573 0.63600004 11441540
-0.03816 0.16172573 0.63600004 11376261
-0.035680957 0.16147144 0.63500005 11376261
-0.033261906 0.16147144 0.63500005 11376261
-0.030842859 0.16147144 0.63500005 11442827
-0.028423812 0.16147144 0.63500005 11574924
-0.026004763 0.16147144 0.63500005 11574667
-0.023585714 0.16147144 0.63500005 11508618
-0.021200001 0.16172573 0.63600004 11508621
-0.018777143 0.16172573 0.63600004 11574157
-0.016354287 0.16172573 0.63600004 11574156
-0.013975237 0.16223429 0.63800001 11509123
-0.011508572 0.16172573 0.63600004 11508612
-0.0090857148 0.16172573 0.63600004 11443082
-0.0066942866 0.16248859 0.63900006 11443342
-0.0042666672 0.16274285 0.64000005 11443348
-0.0018285714 0.16274285 0.64000005 11509658
0.00060952385 0.16274285 0.64000005 11641236
0.0030523811 0.16299714 0.64100003 11641236
0.0054857144 0.16274285 0.64000005 11641746
0.0079238098 0.16274285 0.64000005 11707287
0.010378095 0.16299714 0.64100003 11706514
0.01284 0.16325143 0.64200002 11640975
0.015285715 0.16325143 0.64200002 11641228
0.017703811 0.16299714 0.64100003 11439752
0.020145716 0.16299714 0.64100003 11575950
0.022552382 0.16274285 0.64000005 11904396
0.024990477 0.16274285 0.64000005 11838867
0.027428573 0.16274285 0.64000005 11838867
0.029959999 0.16325143 0.64200002 11904404
0.032506671 0.16376001 0.64400005 11904403
0.034960002 0.16376001 0.64400005 11773587
0.037413336 0.16376001 0.64400005 11641742
0.039866671 0.16376001 0.64400005 11574412
0.042517144 0.16452286 0.64700001 11441801
0.044842858 0.16401429 0.64500004 11376775
0.047300003 0.16401429 0.64500004 11376778
0.049757145 0.16401429 0.64500004 11311495
0.052133337 0.16376001 0.64400005 11311492
0.054586671 0.16376001 0.64400005 11311485
0.057040006 0.16376001 0.64400005 11442816
0.059493337 0.16376001 0.64400005 11443075
-0.059965719 0.15930286 0.63600004 11442571
-0.057542857 0.15930286 0.63600004 11442823
-0.055120002 0.15930286 0.63600004 11311753
-0.052862857 0.15980381 0.63800001 11312265
-0.050274286 0.15930286 0.63600004 11376522
-0.048001904 0.15980381 0.63800001 11442818
-0.045571432 0.15980381 0.63800001 11507582
-0.043140952 0.15980381 0.63800001 11441532
-0.04077429 0.16005431 0.63900006 11310209
-0.038279999 0.15980381 0.63800001 11179657
-0.035905719 0.16005431 0.63900006 11245452
-0.03357619 0.16055524 0.64100003 11311245
-0.031085717 0.16030477 0.64000005 11443079
-0.02864762 0.16030477 0.64000005 11574917
-0.026209526 0.16030477 0.64000005 11508874
-0.023771429 0.16030477 0.64000005 11508620
-0.021400001 0.16080572 0.64200002 11508622
-0.018924762 0.16055524 0.64100003 11574419
-0.016482858 0.16055524 0.64100003 11574418
-0.014040953 0.16055524 0.64100003 11574668
-0.011599048 0.16055524 0.64100003 11575175
-0.0091714282 0.16080572 0.64200002 11508872
-0.0067257145 0.16080572 0.64200002 11573645
-0.00428 0.16080572 0.64200002 11574162
-0.0018400002 0.16130668 0.64400005 11574934
0.00061142858 0.16080572 0.64200002 11640723
0.0030666669 0.16130668 0.64400005 11641234
0.0055028573 0.16080572 0.64200002 11641495
0.0079485718 0.16080572 0.64200002 11641753
0.010426668 0.16130668 0.64400005 11707029
0.012880001 0.16130668 0.64400005 11706517
0.015333335 0.16130668 0.64400005 11641241
0.017786669 0.16130668 0.64400005 11571609
0.020240003 0.16130668 0.64400005 11576983
0.022622859 0.16080572 0.64200002 11642263
0.025146669 0.16130668 0.64400005 11708051
0.027600003 0.16130668 0.64400005 11904659
0.030146668 0.16180763 0.64600003 11904405
0.032607622 0.16180763 0.64600003 11838867
0.035122856 0.1620581 0.64700001 11773837
0.037587617 0.1620581 0.64700001 11575693
0.04005238 0.1620581 0.64700001 11442572
0.042582858 0.16230856 0.648 11376518
0.045051429 0.16230856 0.648 11376771
0.047446668 0.1620581 0.64700001 11376774
0.049834289 0.16180763 0.64600003 11376774
0.052214291 0.16155715 0.64500004 11377540
0.054756194 0.16180763 0.64600003 11377277
0.057394285 0.16230856 0.648 11377280
0.059862856 0.16230856 0.648 11443077
-0.060342859 0.15786667 0.64000005 11442572
-0.057995241 0.15811335 0.64100003 11442826
-0.055466671 0.15786667 0.64000005 11376518
-0.053028576 0.15786667 0.64000005 11377033
-0.050590478 0.15786667 0.64000005 11442824
-0.048302859 0.15836 0.64200002 11507594
-0.045785714 0.15811335 0.64100003 11507338
-0.04341143 0.15836 0.64200002 11441030
-0.040965714 0.15836 0.64200002 11375495
-0.038520001 0.15836 0.64200002 11244933
-0.036186669 0.15885335 0.64400005 11245195
-0.033733334 0.15885335 0.64400005 11311240
-0.031182857 0.15836 0.64200002 11508614
-0.028826667 0.15885335 0.64400005 11574912
-0.026373334 0.15885335 0.64400005 11574404
-0.023845714 0.15836 0.64200002 11574152
-0.021466667 0.15885335 0.64400005 11508875
-0.019013334 0.15885335 0.64400005 11575180
-0.016559999 0.15885335 0.64400005 11575181
-0.014106668 0.15885335 0.64400005 11574925
-0.011653334 0.15885335 0.64400005 11575432
-0.0092000002 0.15885335 0.64400005 11574924
-0.006746667 0.15885335 0.64400005 11639951
-0.0042933337 0.15885335 0.64400005 11639954
-0.0018428573 0.15910001 0.64500004 11575188
0.00061428576 0.15910001 0.64500004 11575444
0.0030761904 0.15934667 0.64600003 11641235
0.0055285715 0.15910001 0.64500004 11641489
0.0079857148 0.15910001 0.64500004 11641742
0.010475239 0.15959333 0.64700001 11707274
0.012920001 0.15934667 0.64600003 11706765
0.015380953 0.15934667 0.64600003 11575188
0.017841905 0.15934667 0.64600003 11509144
0.020334285 0.15959333 0.64700001 11577748
0.022799049 0.15959333 0.64700001 11643031
0.025302857 0.15984 0.648 11708310
0.027728571 0.15959333 0.64700001 11839123
0.030240001 0.15984 0.648 11773334
0.032708574 0.15984 0.648 11707543
0.035177141 0.15984 0.648 11707532
0.037645712 0.15984 0.648 11574924
0.040114284 0.15984 0.648 11442314
0.042714287 0.16033334 0.65000004 11310982
0.045051429 0.15984 0.648 11311237
0.047740001 0.16058001 0.65100002 11442059
0.050142858 0.16033334 0.65000004 11442058
0.052700002 0.16058001 0.65100002 11442313
0.05526476 0.16082667 0.65200001 11377028
0.057660002 0.16058001 0.65100002 11377282
0.060140003 0.16058001 0.65100002 11377284
-0.06053143 0.15591429 0.64200002 11443350
-0.05826667 0.15640001 0.64400005 11443342
-0.055640001 0.15591429 0.64200002 11442312
-0.053442858 0.15664285 0.64500004 11507334
-0.051064763 0.15688573 0.64600003 11572878
-0.048528574 0.15664285 0.64500004 11573138
-0.046000004 0.15640001 0.64400005 11507346
-0.043614287 0.15664285 0.64500004 11507082
-0.041157145 0.15664285 0.64500004 11441543
-0.038700003 0.15664285 0.64500004 11310731
-0.036242861 0.15664285 0.64500004 11311497
-0.033785716 0.15664285 0.64500004 11377296
-0.03132857 0.15664285 0.64500004 11508622
-0.02887143 0.15664285 0.64500004 11574922
-0.026414288 0.15664285 0.64500004 11574405
-0.023957143 0.15664285 0.64500004 11639686
-0.021500001 0.15664285 0.64500004 11639688
-0.019072382 0.15688573 0.64600003 11640197
-0.016637143 0.15712857 0.64700001 11575171
-0.014172382 0.15712857 0.64700001 11574660
-0.011707619 0.15712857 0.64700001 11574916
-0.0092428569 0.15712857 0.64700001 11509127
-0.0067676194 0.15688573 0.64600003 11574670
-0.004306667 0.15688573 0.64600003 11575182
-0.0018457143 0.15688573 0.64600003 11444118
0.0006152381 0.15688573 0.64600003 11444376
0.0030809524 0.15712857 0.64700001 11576720
0.0055457144 0.15712857 0.64700001 11641746
0.0080228569 0.15737143 0.648 11707279
0.010491428 0.15737143 0.648 11641488
0.01296 0.15737143 0.648 11575952
0.015428572 0.15737143 0.648 11509651
0.017897142 0.15737143 0.648 11575697
0.020365715 0.15737143 0.648 11708304
0.022834286 0.15737143 0.648 11774096
0.025302857 0.15737143 0.648 11773591
0.027771428 0.15737143 0.648 11773592
0.030333335 0.15785715 0.65000004 11708057
0.032809526 0.15785715 0.65000004 11707546
0.035285715 0.15785715 0.65000004 11773072
0.037761904 0.15785715 0.65000004 11640202
0.0403 0.15810001 0.65100002 11507847
0.042780001 0.15810001 0.65100002 11442051
0.045260001 0.15810001 0.65100002 11442055
0.047813334 0.15834287 0.65200001 11442058
0.050297141 0.15834287 0.65200001 11376268
0.05286191 0.15858573 0.65300006 11376262
0.055349529 0.15858573 0.65300006 11376257
0.057748571 0.15834287 0.65200001 11442305
0.060232379 0.15834287 0.65200001 11442820
-0.060908575 0.15442477 0.64600003 11442830
-0.058538094 0.15466382 0.64700001 11443344
-0.055986669 0.15442477 0.64600003 11442835
-0.053608574 0.15466382 0.64700001 11507856
-0.05114381 0.15466382 0.64700001 11573132
-0.04867905 0.15466382 0.64700001 11507601
-0.046214286 0.15466382 0.64700001 11442317
-0.04381714 0.15490285 0.648 11441802
-0.041284762 0.15466382 0.64700001 11375752
-0.038820002 0.15466382 0.64700001 11244935
-0.03629905 0.15442477 0.64600003 11245449
-0.033838097 0.15442477 0.64600003 11442569
-0.031425714 0.15466382 0.64700001 11508877
-0.028916191 0.15442477 0.64600003 11509129
-0.026496191 0.15466382 0.64700001 11574155
-0.023994286 0.15442477 0.64600003 11705227
-0.021566667 0.15466382 0.64700001 11704717
-0.019101905 0.15466382 0.64700001 11573898
-0.016662857 0.15490285 0.648 11508611
-0.014194285 0.15490285 0.648 11508607
-0.011725714 0.15490285 0.648 11508359
-0.0092857154 0.15538096 0.65000004 11508360
-0.0067885718 0.15490285 0.648 11508869
-0.0043333336 0.15538096 0.65000004 11574664
-0.0018571429 0.15538096 0.65000004 11508879
0.00061904767 0.15538096 0.65000004 11509143
0.0030952382 0.15538096 0.65000004 11575954
0.0055714287 0.15538096 0.65000004 11707537
0.0080599999 0.15561999 0.65100002 11707279
0.01054 0.15561999 0.65100002 11641488
0.01302 0.15561999 0.65100002 11575436
0.015500002 0.15561999 0.65100002 11575184
0.017980002 0.15561999 0.65100002 11641232
0.020491429 0.15585905 0.65200001 11708049
0.022940002 0.15561999 0.65100002 11773334
0.025459047 0.15585905 0.65200001 11773593
0.027942857 0.15585905 0.65200001 11773850
0.030380001 0.15561999 0.65100002 11838873
0.032809526 0.15538096 0.65000004 11773076
0.03534 0.15561999 0.65100002 11707275
0.03782 0.15561999 0.65100002 11639430
0.040423814 0.15609811 0.65300006 11573127
0.042911433 0.15609811 0.65300006 11507076
0.045399051 0.15609811 0.65300006 11507071
0.048033334 0.1565762 0.65500003 11507071
0.050528575 0.1565762 0.65500003 11441797
0.053023811 0.1565762 0.65500003 11376773
0.055519048 0.1565762 0.65500003 11442049
0.057837147 0.15609811 0.65300006 11507069
0.060324769 0.15609811 0.65300006 11442815
-0.061002858 0.15219904 0.64700001 11508365
-0.05862857 0.15243429 0.648 11573898
-0.056159999 0.15243429 0.648 11574154
-0.053691428 0.15243429 0.648 11573640
-0.051222857 0.15243429 0.648 11573641
-0.048904765 0.15290476 0.65000004 11508357
-0.046428576 0.15290476 0.65000004 11442565
-0.043952383 0.15290476 0.65000004 11442305
-0.041476194 0.15290476 0.65000004 11441793
