# .PCD v0.7 - Point Cloud Data file format
VERSION 0.7
FIELDS x y z rgba
SIZE 4 4 4 4
TYPE F F F U
COUNT 1 1 1 1
WIDTH 1203
HEIGHT 1
VIEWPOINT 0 0 0 1 0 0 0
POINTS 1203
DATA ascii
1.0385435 -0.032142669 2.8309035 7046546
-1.3053706 0.11531362 2.7325637 4938085
-0.62149298 0.072636873 2.7610252 5138046
-0.61388075 0.074257463 2.7599444 5205369
-0.60626853 0.075877994 2.7588637 5466741
1.0243804 -0.023011833 2.8248141 6915221
1.0318158 -0.023453265 2.8251085 6914967
-1.3029519 0.12415072 2.7266703 4939106
-0.60591471 0.080001861 2.7561135 5335923
1.025088 -0.014763921 2.8193135 7046037
1.0316381 -0.01584366 2.8200336 6980503
1.0399586 -0.015646845 2.8199024 6915225
-1.3014771 0.13166234 2.7216606 5005157
1.0256186 -0.008577913 2.8151879 7111318
1.033998 -0.007693857 2.8145986 7046294
1.0406661 -0.0073988736 2.8144016 6980502
-1.2950456 0.13887951 2.7168474 4676190
-0.6094566 0.096792012 2.744916 5008001
-0.6044997 0.096497685 2.7451122 5072767
1.0364168 0.0011433065 2.8087049 7111826
1.0413736 0.00084897876 2.8089013 7177107
-1.2928036 0.14565465 2.7123291 4610906
-0.61105072 0.10724899 2.7379422 4942471
1.0371243 0.0093910992 2.8032043 7176847
1.0445596 0.0089497268 2.8034987 7241875
1.0519949 0.0085081756 2.8037932 7176600
-1.2920961 0.15390256 2.7068286 4742238
-0.60957599 0.11476061 2.7329326 4811653
1.0378318 0.01763913 2.7977037 7241870
1.044382 0.016559333 2.7984238 7372688
1.0525255 0.014694184 2.7996678 7307670
-1.2912117 0.16421238 2.6999528 4415077
-1.2864318 0.16185614 2.7015243 4479838
-1.2439442 0.16347834 2.7004423 3161928
1.0360609 0.026034087 2.7921052 7111056
1.0436729 0.027654499 2.7910242 7307923
-1.2905042 0.17246017 2.6944523 4809066
-1.246069 0.16774949 2.6975939 3293512
1.0375354 0.033545583 2.7870955 7046293
1.0442036 0.033840388 2.7868989 7045782
-1.2897967 0.1807082 2.6889515 4874087
-1.2499647 0.1804156 2.6891468 3491145
1.0399543 0.042382747 2.7812018 7242645
1.0465045 0.041302949 2.7819221 7177876
-1.2890892 0.18895611 2.6834509 5005921
-1.244477 0.18630728 2.6852174 3424581
-1.2000415 0.18159649 2.6883593 4350559
-0.70417297 0.15422758 2.7066116 2962753
1.0404849 0.048568636 2.7770765 7308178
1.0480971 0.050189167 2.7759957 7308176
-1.2883817 0.1972039 2.6779504 4153191
1.0512831 0.058289796 2.7705934 7242895
1.0560631 0.055933565 2.7721648 7242895
-0.65490007 0.167191 2.6979663 5008005
-0.64652067 0.16807511 2.6973767 5008259
-0.63495451 0.16738835 2.6978347 4877193
-0.62669295 0.16689786 2.6981618 4610139
-0.61831355 0.16778198 2.6975722 4996970
1.0372968 0.069482654 2.7631288 6915475
1.0495121 0.066684812 2.7649946 6980495
1.0569475 0.06624344 2.7652891 7111567
-1.1281685 0.2063438 2.671855 5009009
-0.645046 0.17558661 2.6923671 5008260
-0.63513213 0.17499802 2.6927598 4877702
-0.62521827 0.17440936 2.6931524 4607833
-0.61530447 0.17382076 2.6935449 4871285
-0.60804594 0.17131731 2.6952145 4682629
1.0376505 0.07360658 2.7603786 6980759
1.0511048 0.07557103 2.7590685 6980239
1.0574781 0.072429329 2.7611637 7111566
-1.2887377 0.2220948 2.6613505 6057339
-1.1202024 0.21208826 2.6680241 4147791
-1.1125901 0.21370873 2.6669433 667452
-0.69479263 0.18613937 2.6853294 1775886
-0.6445154 0.1817725 2.6882417 4811910
-0.63442463 0.18324593 2.6872592 4616062
-0.62451077 0.18265733 2.6876516 4215636
-0.61477387 0.18000665 2.6894193 4216181
1.0434918 0.083622187 2.7536991 6980496
1.0509272 0.083180696 2.7539935 7111054
1.0581856 0.080677241 2.7556629 7176844
-1.2855517 0.23019549 2.6559482 5397105
-1.2805948 0.22990116 2.6561444 3890285
-1.1186098 0.22097442 2.6620977 4080949
-1.1095811 0.21974757 2.6629159 2436404
-1.0996674 0.21915886 2.6633084 2238261
-1.0905206 0.21930668 2.6632099 2107954
-1.0771842 0.21989641 2.6628165 2369836
-1.0697489 0.21945497 2.663111 2501423
-1.0598351 0.21886638 2.6635036 2502454
-1.0499212 0.21827772 2.6638961 2569279
-0.70222884 0.19625244 2.6785851 2502191
-0.69396722 0.19576189 2.6789122 2105886
-0.68063092 0.19635168 2.6785188 2642011
-0.66576016 0.19546875 2.6791077 4483964
-0.65265965 0.19330934 2.6805477 4811655
-0.64363098 0.19208238 2.681366 4681094
-0.63371712 0.19149384 2.6817584 4419202
-0.62628168 0.19105229 2.6820531 3960163
-0.61619103 0.19252566 2.6810703 4602720
1.0441993 0.09187004 2.7481985 6980244
1.0516347 0.091428548 2.748493 7045265
-1.2873226 0.23859057 2.6503494 7043728
-1.2798873 0.23814902 2.6506438 4089465
-1.2354518 0.23343834 2.6537855 3228499
-1.1179023 0.22922233 2.6565971 4279889
-1.1096408 0.22873184 2.6569242 3024172
-1.0998449 0.22676852 2.6582336 2761513
-1.0692183 0.22564086 2.6589856 2436144
-1.0593045 0.22505227 2.6593781 2503221
-1.0520459 0.22254887 2.6610477 2570041
-0.69001412 0.20312616 2.6740007 2765886
-0.68257868 0.20268479 2.6742952 3228755
-0.67266494 0.20209619 2.6746879 4351344
-0.66275108 0.20150754 2.6750803 4549247
-0.65283722 0.20091888 2.6754727 4877191
-0.64292347 0.20033023 2.6758654 4812169
-0.63212448 0.20038 2.6758323 4419717
-0.62557417 0.19930014 2.6765523 4221796
1.0523422 0.09967646 2.7429924 6849172
1.0599544 0.10129699 2.7419116 6914452
-1.4181503 0.25257561 2.6410224 8760265
-1.2875001 0.24620011 2.6452744 7769754
-1.2774686 0.24698618 2.6447501 5135738
-1.2294337 0.24551579 2.6457307 3162193
-1.1182568 0.23476991 2.6528974 4153461
-1.1056877 0.23609611 2.6520128 3147281
-1.0982524 0.23565462 2.6523073 2563099
-1.0660323 0.23374161 2.653583 2305582
-0.68948346 0.20931217 2.6698754 3158342
-0.6827563 0.2102944 2.6692202 3619147
-0.67195743 0.21034405 2.6691871 4284541
-0.66204357 0.20975539 2.6695797 4483465
-0.65136254 0.20843044 2.6704633 4811657
-0.64221597 0.20857814 2.6703649 4811914
-0.63153487 0.20725319 2.6712484 4813192
-0.62486666 0.20754805 2.6710517 5140840
1.0456144 0.1083658 2.7371974 6849428
1.0530497 0.10792431 2.7374916 6849172
1.0603081 0.10542092 2.7391613 6849171
-1.2873591 0.25558695 2.6390142 7838887
-1.2761707 0.25243571 2.6411159 5202815
-1.22908 0.24963978 2.6429806 3227726
-1.0952433 0.24169341 2.6482799 2432547
-1.0702817 0.24228385 2.6478863 1910823
-0.68877596 0.21756002 2.6643748 3092041
-0.68381906 0.21726575 2.664571 3421515
-0.67142677 0.21653 2.6650617 3957113
-0.66151291 0.21594134 2.6654544 4352649
-0.64912063 0.21520558 2.6659451 4811919
-0.64416373 0.21491125 2.6661413 4877709
1.0537572 0.11617222 2.7319913 6653332
1.0611925 0.11573079 2.7322855 6653332
-1.2866516 0.2638348 2.6335137 7708586
-0.59884393 0.22051033 2.6624072 4745863
-0.59388703 0.22021601 2.6626034 4942465
1.0544647 0.12442008 2.7264905 6784148
1.0643786 0.12383148 2.7268832 6849942
-1.286971 0.2717292 2.6282489 8695724
-1.2175742 0.26760891 2.6309967 3292748
-0.60026115 0.23302934 2.6540582 4809336
-0.59282577 0.23258784 2.6543527 4876408
1.0551722 0.13266799 2.7209899 6848914
1.0650861 0.13207939 2.7213826 6783895
-1.2896271 0.27948591 2.623076 9089478
-1.2170436 0.2737948 2.6268713 3293262
-0.60238582 0.23730043 2.6512098 5004664
1.0657936 0.14032724 2.7158821 6915221
-1.2112021 0.28381035 2.6201918 3292998
-1.123571 0.27929822 2.6232009 4548214
1.0640225 0.14872232 2.7102833 6914709
-1.3069777 0.29985926 2.6094887 8696267
-1.2972409 0.2972087 2.6112564 8696009
-1.2104946 0.29205826 2.6146913 3227979
-1.1706625 0.29176578 2.6148863 4547682
-1.1310072 0.28941128 2.6164565 4744572
-1.1246337 0.28626952 2.6185517 4679797
1.0597732 0.1572645 2.7045863 6848922
1.06473 0.15697023 2.7047825 6849179
-1.3964388 0.31207916 2.6013391 8498892
-1.3880593 0.31296322 2.6007495 8631501
-1.3236195 0.3091372 2.603301 8697294
-1.3163611 0.3066338 2.6049707 8631500
-1.3064471 0.3060452 2.6053634 8762315
-1.2973005 0.30619296 2.6052647 8631241
-1.288921 0.30707702 2.6046751 8564934
-1.2096102 0.30236807 2.6078155 3294030
-1.2023519 0.29986474 2.6094851 3292754
-1.1949166 0.29942325 2.6097796 3357785
-1.1825242 0.29868749 2.6102703 3954273
-1.1726105 0.29809883 2.6106627 4285282
-1.1626966 0.29751024 2.6110554 4348522
-1.1518975 0.29755989 2.6110222 4479860
-1.1419837 0.29697123 2.6114147 4677754
-1.1329551 0.29574439 2.6122329 4744062
-1.1232181 0.29309377 2.6140006 4679293
-1.1157826 0.29265234 2.614295 4679797
1.0604807 0.16551241 2.6990857 6849177
1.0654376 0.16521814 2.6992822 6848923
-1.4075333 0.31826445 2.5972142 8301001
-1.3941969 0.31885424 2.5968208 8433612
-1.382395 0.3209168 2.5954452 8696780
-1.3724811 0.32032821 2.5958378 8828365
-1.3675241 0.32003388 2.596034 8893646
-1.3230889 0.31532314 2.5991757 8893135
-1.3156536 0.31488165 2.5994701 8893647
-1.3057396 0.31429306 2.5998626 8827852
-1.2958258 0.31370452 2.6002553 8762053
-1.2883904 0.31326297 2.6005497 8630977
-1.1909633 0.30678752 2.6048682 3555674
-1.1818167 0.3069354 2.6047697 3824227
-1.171903 0.30634674 2.6051621 3892325
-1.1628741 0.30511978 2.6059804 4086888
-1.1522521 0.30310753 2.6073225 4086386
-1.142338 0.30251887 2.6077149 4481656
-1.1330147 0.3047286 2.6062412 4613500
-1.1231008 0.30413994 2.6066339 4679544
-1.1147214 0.30502412 2.6060443 4679540
-0.68594807 0.27956632 2.6230223 3225157
-0.67621106 0.27691582 2.62479 4077361
-0.66859895 0.27853629 2.6237092 4150111
1.0611882 0.17376027 2.6935852 6914713
1.0678564 0.17405519 2.6933885 6915228
-1.4114289 0.33093056 2.5887671 8103874
-1.4039936 0.33048907 2.5890615 8431555
-1.3942567 0.32783851 2.5908291 8629448
-1.3843428 0.32724991 2.5912216 8827081
-1.3751961 0.32739761 2.5911231 8893390
-1.3669935 0.32621983 2.5919087 8828110
-1.3223814 0.32357106 2.5936751 9023695
-1.3147691 0.32519147 2.5925944 8892880
-1.3050321 0.32254097 2.594362 8697039
-1.2942331 0.32259056 2.5943289 8762055
-1.2852044 0.32136372 2.5951471 8761794
-1.1910231 0.31577185 2.5988765 3554904
-1.1811092 0.31518325 2.5992689 3759717
-1.1639369 0.3120912 2.6013312 4350823
1.0618957 0.18200818 2.6880846 6915484
1.0693312 0.18156675 2.688379 6981020
-1.4231137 0.33991423 2.5827756 7905726
-1.4131999 0.33932558 2.5831683 8103103
-1.403463 0.33667508 2.5849359 8365761
-1.3935492 0.33608648 2.5853286 8563649
-1.3828681 0.33476141 2.5862122 8761796
-1.3737215 0.33490923 2.5861137 8696787
-1.3638077 0.33432057 2.5865061 8631504
-1.3538938 0.33373198 2.5868988 8697040
-1.34398 0.33314338 2.5872912 8696781
-1.3218507 0.32975695 2.5895495 8958671
-1.3144153 0.32931551 2.589844 8892878
-1.3045014 0.32872686 2.5902367 8827851
-1.2795401 0.32931736 2.5898428 8958924
-1.1894304 0.32465801 2.5929501 3554107
-1.1828802 0.32357833 2.5936704 3816276
-1.1308326 0.32048807 2.5957313 4416637
-1.1209188 0.31989941 2.5961237 4548221
-1.1133064 0.32151988 2.5950432 4613756
1.0626032 0.19025609 2.682584 6915739
1.0691535 0.18917635 2.6833041 7046556
-1.411902 0.34477505 2.5795341 7906752
-1.4027555 0.34492287 2.5794353 8038595
-1.3928417 0.34433421 2.579828 8235972
-1.3829278 0.34374568 2.5802205 8237768
-1.3730141 0.34315702 2.5806131 8500175
-1.3657553 0.34065357 2.5822825 8697041
-1.3432724 0.34139124 2.5817907 8893389
-1.3209664 0.34006676 2.582674 8697294
-1.3108755 0.34154019 2.5816913 8959182
-1.3036171 0.33903667 2.5833609 8893131
-1.2910479 0.34036294 2.5824764 8893131
-1.2799833 0.33866969 2.5836058 8828113
-1.271574 0.3350617 2.5860119 9222351
-1.1970434 0.33270904 2.5875809 3097417
-1.1896081 0.33226761 2.5878754 2636597
-1.1804613 0.33241531 2.5877767 1918558
-1.142694 0.32740965 2.591115 4217974
-1.1308922 0.32947221 2.5897396 4481919
-1.1200343 0.33020923 2.5892479 4679297
-1.1125989 0.32976779 2.5895424 4679297
1.0608323 0.19865105 2.6769853 6849689
1.0680908 0.19614765 2.6786549 6980506
-1.4218756 0.35434803 2.5731497 7709118
-1.4119618 0.35375938 2.5735424 7775425
-1.402048 0.35317078 2.5739348 7907525
-1.3921342 0.35258219 2.5743275 8169415
-1.3831053 0.35135528 2.5751455 8172236
-1.3747849 0.3515521 2.5750144 8435406
-1.3646941 0.35302547 2.5740318 8762831
-1.3498234 0.35214254 2.5746205 8893904
-1.3425649 0.34963909 2.5762901 8828368
-1.3326513 0.34905049 2.5766826 8762577
-1.3227372 0.3484619 2.5770752 8631505
-1.3128234 0.34787324 2.5774677 8762320
-1.3029096 0.34728459 2.5778604 8761806
-1.2929958 0.34669599 2.5782528 8762316
-1.2806034 0.34596023 2.5787435 8697036
-1.2705128 0.3474336 2.5777609 8630733
-1.1965127 0.33889499 2.5834556 3097422
-1.1890774 0.3384535 2.5837498 2571347
-1.1715513 0.33948538 2.5830617 5137256
-1.1295943 0.33492181 2.5861051 4481917
-1.1196805 0.33433315 2.5864978 4613761
-1.1122451 0.33389172 2.5867922 4679298
1.0615398 0.20689902 2.6714847 6784411
-1.4211681 0.36259595 2.5676491 7577786
-1.4112543 0.36200729 2.5680416 7775166
-1.4013405 0.36141869 2.5684342 7907269
-1.3914267 0.36083004 2.5688267 8104648
-1.3815128 0.36024144 2.5692194 8302541
-1.371599 0.35965285 2.5696118 8828625
-1.3641635 0.35921136 2.5699062 9024720
-1.3491158 0.36039039 2.5691199 8763089
-1.3418574 0.357887 2.5707896 8370130
-1.3319438 0.35729834 2.571182 8304084
-1.3220297 0.35670975 2.5715747 8631252
-1.312116 0.35612115 2.5719671 8827858
-1.3022021 0.3555325 2.5723598 8958930
-1.2922883 0.3549439 2.5727522 8959184
-1.2798959 0.35420808 2.5732429 8828110
-1.2699822 0.35361949 2.5736356 8499663
-1.1781023 0.35023674 2.5758915 3556956
-1.1691326 0.34832248 2.5771682 4610663
1.0630145 0.21441045 2.6664753 6850200
-1.4204606 0.37084386 2.5621486 7708858
-1.4105468 0.3702552 2.562541 7775421
-1.400633 0.36966661 2.5629337 7775427
-1.3907192 0.36907801 2.5633261 7907271
-1.3832836 0.36863652 2.5636206 7776713
-1.3707145 0.36996272 2.562736 8369876
-1.3608007 0.36937407 2.5631287 8828370
-1.3501785 0.36736175 2.5644708 8697554
-1.3411499 0.36613491 2.565289 8238546
-1.3312362 0.36554626 2.5656815 8238291
-1.3213222 0.36495766 2.5660741 8369875
-1.3114085 0.364369 2.5664666 8566738
-1.3007274 0.36304405 2.5673501 8697040
-1.2915808 0.36319181 2.5672517 8762320
-1.2805161 0.36149862 2.5683808 8762574
-1.2694515 0.35980543 2.56951 8697041
-1.1750932 0.35627553 2.5718641 3556442
-1.168543 0.35519579 2.5725842 4019814
1.0652565 0.22118565 2.6619568 6980758
1.0703901 0.22295335 2.660778 7046295
-1.419753 0.37909177 2.5566478 7512250
-1.4107243 0.37786481 2.557466 7578559
-1.4001023 0.3758525 2.5588081 7644352
-1.3900115 0.37732586 2.5578256 7907521
-1.3800976 0.37673721 2.558218 8301000
-1.3701839 0.37614861 2.5586107 8828371
-1.36027 0.37556002 2.5590031 8893650
-1.3503561 0.37497136 2.5593958 8828114
-1.3404423 0.37438282 2.5597882 8500179
-1.3305286 0.37379417 2.5601809 8304084
-1.3206146 0.37320557 2.5605733 8239059
-1.3107009 0.37261698 2.560966 8435409
-1.300787 0.37202826 2.5613585 8434896
-1.2908732 0.37143973 2.5617511 8500687
-1.2784808 0.37070391 2.5622418 8369102
-1.2685671 0.37011531 2.5626345 8697548
-1.1743855 0.36452344 2.5663636 3554638
-1.1694287 0.36422911 2.5665598 3756391
1.0710977 0.23120126 2.6552773 7047068
-1.4182783 0.38660321 2.5516384 7577277
-1.4116102 0.38689813 2.5514417 7578570
-1.3965626 0.38807717 2.5506554 7645382
-1.3891273 0.38763568 2.5509498 8104128
-1.3785051 0.38562337 2.5522919 8563904
-1.3694763 0.38439646 2.5531101 8827345
-1.3595625 0.38380787 2.5535026 8828111
-1.3496487 0.38321921 2.5538952 8828112
-1.3397348 0.38263062 2.5542879 8762579
-1.3298211 0.38204202 2.5546803 8631509
-1.3199071 0.38145342 2.5550728 8566483
-1.3099933 0.38086471 2.5554655 8566738
-1.3000795 0.38027617 2.5558579 8566738
-1.2878641 0.37747845 2.5577238 8500944
-1.2777734 0.3789517 2.5567412 8434894
-1.173678 0.37277129 2.560863 3619916
-1.1687212 0.37247697 2.5610595 3950696
-1.1561521 0.37380317 2.5601749 4023924
-1.1462383 0.37321457 2.5605674 4152431
-1.1363243 0.37262592 2.5609601 4217205
1.0718052 0.23944911 2.6497767 6915489
-1.4084241 0.39499882 2.5460393 7643581
-1.3977432 0.39367387 2.5469229 7710664
-1.3885965 0.39382157 2.5468245 7907523
-1.3786826 0.39323297 2.5472169 7711173
-1.3687688 0.39264444 2.5476096 8238032
-1.358855 0.39205578 2.548002 8828108
-1.3489411 0.39146712 2.5483947 8893901
-1.3390273 0.39087853 2.5487871 8697296
-1.3299987 0.38965163 2.5496054 8566483
-1.3193765 0.38763931 2.5509474 8697301
-1.3092859 0.38911268 2.5499649 8697300
-1.299372 0.38852409 2.5503573 8565715
-1.2770658 0.38719967 2.5512407 8565710
-1.1731474 0.37895718 2.5567377 3555154
1.0677327 0.25005326 2.6427047 7046813
1.0725127 0.24769697 2.6442761 7046559
-1.3978028 0.40265813 2.5409312 7644352
-1.3880659 0.40000746 2.5426989 7775938
-1.3657597 0.3986831 2.5435822 8435409
-1.3558459 0.39809451 2.5439749 9025232
-1.3087553 0.39529857 2.5458393 8696530
-1.2994318 0.39750835 2.5443656 8762834
-1.2714014 0.39515325 2.5459363 8762832
-1.2664446 0.39485893 2.5461326 8631760
1.0682634 0.25623915 2.6385794 6981019
1.0732203 0.25594488 2.6387756 7111836
-1.4241815 0.41458669 2.5329759 7249082
-1.3979805 0.4102678 2.5358562 7513280
-1.3870047 0.41237935 2.5344481 7776193
-1.3646985 0.411055 2.5353312 8366030
-1.2981339 0.40295783 2.5407314 8763607
-1.2878664 0.40649322 2.5383737 8959699
-1.2756509 0.40369543 2.5402393 8958930
-1.2634355 0.40089765 2.5421052 8893650
1.0666692 0.26669618 2.6316054 7046555
1.0739278 0.26419279 2.633275 7177118
-1.4238276 0.41871056 2.5302258 7183802
-1.4163923 0.41826913 2.5305202 7249338
-1.3956207 0.41841754 2.5304213 7644096
-1.3046848 0.41370913 2.5335612 8763861
-1.2980168 0.41400412 2.5333645 8763350
-1.2875125 0.41061708 2.5356233 8828627
-1.2799002 0.41223755 2.5345426 8828883
1.0696784 0.27273485 2.6275783 7374489
1.0746353 0.27244058 2.6277745 7373724
-1.4029388 0.42990515 2.5227599 7904701
-1.3947953 0.42804006 2.5240037 7971520
-1.3038005 0.42401901 2.5266855 8370394
-1.2965419 0.42151555 2.5283551 8567004
1.0703859 0.28098276 2.6220775 7308185
1.0753428 0.28068849 2.6222739 7308184
-1.4139154 0.43746528 2.5177181 7576247
-1.4040015 0.43687662 2.5181108 7773371
-1.3974513 0.43579683 2.5188308 7839422
-1.3131837 0.43079355 2.5221674 8500951
-1.3082267 0.43049923 2.5223637 8435160
1.0709165 0.28716871 2.6179521 7243164
1.0777615 0.28952572 2.6163802 7177628
-1.4117913 0.4428657 2.5141165 7510967
-1.404356 0.44242421 2.514411 7576763
-1.3942653 0.44389758 2.5134282 7643327
-1.3866532 0.44551805 2.5123477 7774913
1.0792364 0.29703715 2.6113708 7113117
-1.4025865 0.45337233 2.5071096 7053245
-1.3935578 0.45214543 2.5079279 7315903
-1.3813423 0.4493477 2.5097935 7840706
-1.372963 0.45023182 2.5092039 7841220
1.070915 0.30651191 2.605052 6981533
1.0799439 0.30528501 2.6058702 6981791
-1.401879 0.46162024 2.5016088 7054011
-1.3953288 0.4605405 2.5023289 7249598
1.0707375 0.31412151 2.599977 6981277
1.0781728 0.31368008 2.6002715 6915997
-1.4022335 0.46716794 2.4979091 6988475
-1.3947982 0.46672645 2.4982035 7249856
1.0641866 0.32487288 2.5928068 6980253
1.0689665 0.32251653 2.5943785 6981022
1.0721525 0.33061728 2.5889759 6915744
1.07286 0.33886519 2.5834754 6916253
1.0735675 0.34711304 2.5779748 6915484
1.0751601 0.3559992 2.5720484 7112094
1.0758677 0.36424711 2.5665479 7112348
1.0781685 0.37170961 2.5615711 7243164
1.0831254 0.37141535 2.5617673 7309469
1.078876 0.37995747 2.5560706 7243677
1.0863115 0.37951604 2.556365 7374492
1.0939237 0.38113651 2.5552843 7374236
1.0795835 0.38820532 2.55057 7112096
1.087019 0.38776389 2.5508645 7112349
1.0944543 0.3873224 2.5511589 7112605
1.0801141 0.39439127 2.5464444 7046813
1.0875496 0.39394984 2.5467389 6981533
-1.3055642 0.097788304 2.768291 3887448
-1.2973583 0.09590885 2.7695444 3689044
1.0231365 -0.037690431 2.8586428 6785168
-1.3064569 0.10689083 2.7622204 4084311
1.0261687 -0.031605273 2.8545847 6915217
1.0311636 -0.031901866 2.8547826 6915218
-1.3105606 0.11757639 2.7550943 4543582
-1.3057441 0.11520192 2.7566776 4150357
1.0243841 -0.023145884 2.848943 7046290
1.0341958 -0.025816828 2.8507242 6980755
-1.3100258 0.12380967 2.7509372 4675423
-1.3050311 0.12351307 2.7511349 4347739
-1.2748833 0.12381151 2.750936 3228479
1.0176048 -0.014389902 2.8431036 6914704
1.0250971 -0.014834732 2.8434002 6980243
-1.3025937 0.13241783 2.7451963 4413018
1.0283074 -0.0066719949 2.8379564 7176853
-1.3003347 0.13924494 2.7406433 4412248
-1.2784524 0.14073023 2.7396526 3622472
-1.2734574 0.1404337 2.7398505 3491142
1.0365129 0.0011942685 2.8327105 7111314
-1.297719 0.15022764 2.7333188 4412504
1.0372257 0.0095054209 2.8271675 7111823
-1.2971842 0.15646091 2.7291617 4478553
-1.2921895 0.15616432 2.7293596 4215638
-1.2698904 0.15275207 2.7316351 3621705
1.0379387 0.017816633 2.8216248 7111821
-1.2966496 0.16269425 2.7250047 4479324
-1.2912984 0.16655329 2.7224312 4347224
-1.2663238 0.16507044 2.7234199 3490635
-1.2613288 0.16477391 2.7236178 3359050
1.0377595 0.025484473 2.8165112 7110798
-1.2957584 0.17308316 2.7180762 4544609
-1.2905854 0.17486444 2.7168884 4478042
-1.2656108 0.1733816 2.7178771 3490889
-1.260794 0.17100719 2.7194607 3293767
1.0318722 0.034883589 2.8102427 7176595
1.036867 0.034586996 2.8104405 7111059
-1.2950455 0.18139431 2.7125335 4741990
-1.2900507 0.18109772 2.7127314 4543587
-1.275066 0.18020806 2.7133245 3886417
-1.2650762 0.17961487 2.7137201 3491402
1.0400774 0.042749912 2.8049965 7111575
-1.2943325 0.1897054 2.7069907 4872291
-1.2893378 0.18940881 2.7071886 4609637
-1.2645414 0.18584827 2.709563 3622476
-1.25919 0.18970719 2.7069895 3556681
1.0334762 0.053583592 2.7977715 7111829
1.0407904 0.051061004 2.7994537 7242645
-1.2936196 0.19801655 2.701448 4873316
-1.2886249 0.19771996 2.7016459 4610146
-1.2588335 0.19386283 2.7042181 3556680
1.0415033 0.059372157 2.793911 7176843
1.051493 0.058778971 2.7943068 7242383
-1.2945124 0.20711908 2.6953773 4611937
1.0447137 0.067534953 2.7884672 6915213
1.0513142 0.06644699 2.7891927 7046032
-1.2946913 0.21478698 2.6902637 4873820
-1.1346757 0.20737466 2.6952069 4940390
1.0529189 0.075401276 2.7832212 6849682
-1.2939783 0.22309813 2.6847208 4941414
-1.2513434 0.22265515 2.6850162 3293776
-1.1318218 0.21138194 2.6925344 5267301
-1.1241512 0.21301493 2.6914454 2177103
-0.61217237 0.18261698 2.7117181 4681091
-0.6071775 0.18232039 2.711916 4746114
1.0438204 0.086383313 2.775897 6979986
1.0509564 0.081782788 2.7789652 6980498
-1.2909461 0.22918323 2.6806626 5660521
-1.2855948 0.23304215 2.6780891 4612199
-1.2506304 0.23096618 2.6794734 3359823
-1.063321 0.21984497 2.6868904 2501950
-1.0533313 0.21925184 2.6872859 2568006
-0.706541 0.19448504 2.7038031 2238507
-0.6230548 0.19231263 2.7052519 3751001
-0.61395687 0.19107631 2.7060764 4222079
-0.60474014 0.19122526 2.7059772 4746367
1.0443552 0.092616588 2.77174 6980498
-1.2850602 0.23927554 2.6739321 4152941
-1.0519046 0.22612837 2.6826999 2635071
-1.0454824 0.22296259 2.6848111 2634563
-0.71296412 0.20739654 2.6951923 2700340
-0.7029742 0.20680341 2.6955879 2633527
-0.64053774 0.20309636 2.69806 4550279
-0.62400693 0.2007226 2.6996431 4013644
-0.61324394 0.1993874 2.7005339 4351611
-0.6032542 0.19879428 2.7009292 4745599
1.045068 0.10092774 2.7661972 6914712
1.0527387 0.10256061 2.7651083 6914712
-1.2843472 0.24758664 2.6683893 4807026
-1.1193367 0.23987773 2.6735303 3359039
-1.0693876 0.2369121 2.675508 2437428
-1.0611817 0.23503265 2.6767616 2634808
-1.0520836 0.23379639 2.6775861 2700603
-1.0419155 0.23528096 2.6765959 2635324
-0.70993191 0.21348163 2.6911342 2699316
-0.70243949 0.21303675 2.6914308 2764856
-0.62252086 0.20829174 2.6945953 3816530
-0.61253101 0.20769855 2.6949909 4156794
-0.60254127 0.20710549 2.6953864 4615550
-0.59504884 0.2066606 2.695683 4942208
1.0382886 0.10968366 2.7603579 7111063
1.045781 0.10923889 2.7606544 6914712
1.0530951 0.10671619 2.762337 6849430
-1.2788175 0.25352344 2.6644299 5134703
-1.1189803 0.24403331 2.670759 3687233
-1.0713503 0.24329373 2.6712523 2240300
-1.0605875 0.24195853 2.6721427 2634296
-1.0513706 0.24210742 2.6720433 2897468
-1.0413808 0.2415143 2.6724389 2831930
-1.0338885 0.24106953 2.6727357 2635319
-0.71082455 0.22258416 2.6850636 2567733
-0.70172656 0.22134784 2.6858881 2699069
-0.69441247 0.21882525 2.6875706 3091783
-0.68424439 0.22030994 2.6865802 3751757
-0.65926987 0.2188271 2.6875691 4746635
-0.64089566 0.21843222 2.6878326 4812684
-0.63161957 0.21927378 2.6872714 4814206
-0.62180793 0.21660277 2.6890526 4471898
-0.611045 0.21526763 2.6899431 4550536
-0.60182834 0.21541652 2.6898437 4680838
1.0464939 0.11754999 2.7551117 6849427
1.0541645 0.11918285 2.7540228 6784146
-1.2879161 0.26450548 2.6571059 5403780
-1.2829213 0.26420888 2.6573038 5201777
-1.2377888 0.26361755 2.6576982 3424333
-1.073313 0.24967536 2.6669962 2042923
-1.050836 0.24834082 2.6678863 2766141
-1.0408461 0.24774769 2.6682818 2897211
-1.0333538 0.24730286 2.6685786 2831929
-0.71849591 0.23069701 2.6796532 2698549
-0.71100354 0.23025212 2.6799498 2633269
-0.70101362 0.22965905 2.6803453 2764862
-0.69102383 0.22906592 2.6807408 3289671
-0.68103397 0.22847274 2.6811364 3621721
-0.67104417 0.22787961 2.6815319 3960462
-0.66105437 0.22728655 2.6819277 4549771
-0.65106452 0.22669342 2.6823232 4811916
-0.64107472 0.22610024 2.6827188 4812427
-0.63108486 0.22550717 2.6831143 4289407
-0.621095 0.22491398 2.6835098 3291739
-0.61110514 0.2243208 2.6839054 4090505
-0.60129362 0.22164991 2.6856866 4811654
1.0472069 0.12586108 2.7495689 6718609
1.0546993 0.12541619 2.7498658 6653075
-1.2897007 0.27296481 2.6514645 6849413
-1.2823867 0.27044216 2.6531467 5332342
-0.71778297 0.2390081 2.6741104 2766389
-0.71029061 0.23856321 2.674407 2701109
-0.70030069 0.23797008 2.6748025 2896958
-0.6903109 0.23737696 2.6751981 3355212
-0.68032104 0.23678383 2.6755939 3949665
-0.67033124 0.23619071 2.6759894 4156552
-0.66034144 0.23559758 2.6763849 4549768
-0.65035158 0.23500445 2.6767805 4877705
-0.64036179 0.23441133 2.677176 4812426
-0.63037193 0.2338182 2.6775715 4158594
-0.62038207 0.23322502 2.6779671 4275556
-0.61039221 0.23263189 2.6783626 4613498
-0.60040247 0.23203877 2.6787581 4810877
1.0479198 0.13417217 2.7440264 6718099
1.0554122 0.13372728 2.744323 6783634
-1.2914853 0.28142419 2.6458228 7967920
-0.71707004 0.24731919 2.6685677 2766138
-0.71046948 0.24623117 2.6692932 2700601
-0.69881463 0.24553922 2.6697547 2829881
-0.68959796 0.24568805 2.6696553 3288378
-0.67960811 0.24509493 2.6700511 3555396
-0.66961831 0.2445018 2.6704466 4091264
-0.65962851 0.24390867 2.6708422 4614787
-0.65053058 0.24267241 2.6716666 4877191
-0.63697302 0.24465194 2.6703465 4877962
-0.62216663 0.24168441 2.6723256 4542814
-0.61235499 0.23901352 2.6741068 4742006
-0.59951127 0.24242768 2.6718297 4876663
-0.59201884 0.24198285 2.6721265 4942709
1.0511302 0.14233497 2.7385826 6979473
1.0578494 0.14263216 2.7383842 6979727
1.0662932 0.14352307 2.7377901 6914964
-1.2973728 0.29082331 2.6395543 9088960
-1.2909507 0.28765753 2.6416657 8562366
-1.2256602 0.28795776 2.6414654 3293510
-0.71635711 0.25563034 2.6630249 2766398
-0.71136212 0.25533375 2.6632228 2635070
-0.69655561 0.25236621 2.6652017 2895675
-0.6897769 0.25335601 2.6645417 3288637
-0.6781221 0.25266406 2.6650031 3751506
-0.66890538 0.25281295 2.6649039 4549757
-0.65980744 0.25157663 2.6657283 4942723
-0.64815259 0.25088462 2.6661897 5008772
-0.64161158 0.24910399 2.6673772 5008771
-0.62662679 0.24821433 2.6679707 4878713
-0.62163192 0.24791774 2.6681685 4937580
-0.60819322 0.24851212 2.6677721 5135231
-0.59897661 0.24866101 2.6676726 4942205
-0.59166241 0.24613836 2.6693552 4877429
1.0516648 0.1485683 2.7344255 7241616
1.0593354 0.15020129 2.7333364 7110544
1.0668279 0.1497564 2.733633 6980498
-1.2975518 0.29849133 2.6344404 8498625
-1.2900594 0.29804644 2.6347373 7974079
-1.2249472 0.29626891 2.6359227 3228492
-0.69548619 0.26483294 2.6568875 2633788
-0.6881721 0.26231024 2.6585698 3026493
-0.67818224 0.26171711 2.6589656 3224141
-0.66819239 0.26112399 2.6593611 4026252
-0.65909451 0.25988773 2.6601856 4614791
1.0600483 0.15851232 2.7277937 6979222
1.0673627 0.15598968 2.729476 6914198
-1.3043312 0.30724731 2.6286011 8696522
-1.2968389 0.30680248 2.6288977 8695242
-1.286849 0.3062093 2.6292932 8957116
-1.2270882 0.30057272 2.6330523 3163472
-1.2192395 0.30428347 2.6305776 3293774
-1.12719 0.29464141 2.637008 4679539
-0.69495147 0.27106628 2.6527305 2830396
-0.68745911 0.27062145 2.6530271 2961214
-0.67746925 0.27002832 2.6534228 3617618
-0.66747946 0.2694352 2.6538184 4025999
-0.65838158 0.26819888 2.6546428 4549257
1.0532689 0.16726837 2.7219543 6979479
1.0607612 0.16682348 2.7222509 6848663
-1.2936283 0.31496528 2.6234539 8565959
-1.286136 0.31452039 2.6237504 9287354
-1.2135316 0.31229803 2.6252327 3424080
-1.2085366 0.31200144 2.6254306 3424081
-1.1362886 0.30562344 2.629684 4679293
-1.1262988 0.30503032 2.6300795 4679542
-0.69655776 0.28160349 2.6457031 2895673
-0.6876381 0.27828941 2.6479132 3485496
-0.67598331 0.27759746 2.6483748 3289420
-0.66676652 0.27774629 2.6482756 4352653
-0.65677673 0.27715316 2.6486712 5269638
-0.64928436 0.27670833 2.6489677 5532292
-0.63947278 0.27403739 2.650749 5467270
-0.60760069 0.27492955 2.6501541 5658243
-0.59915698 0.27582046 2.64956 6187647
1.0539819 0.17557946 2.7164116 6914711
1.0614742 0.17513463 2.7167082 6914712
-1.2930937 0.32119861 2.6192968 8565699
-1.2854232 0.32283148 2.6182079 8761529
-1.2777526 0.32446441 2.6171188 7116712
-1.2154944 0.31867954 2.6209767 3490385
-1.2063963 0.31744328 2.6218011 3555158
-1.1828493 0.31882969 2.6208766 3958632
-1.1778543 0.31853309 2.6210744 4154725
-1.1655452 0.31571391 2.6229546 3822957
-1.1555555 0.31512073 2.6233501 4021625
-1.1463386 0.31526968 2.623251 4285566
-1.1353976 0.31601229 2.6227555 4417145
-1.1254077 0.31541917 2.6231511 4482932
-0.66623187 0.28397962 2.6441185 5137793
-0.65873951 0.2835348 2.6444151 5859452
1.0546948 0.18389055 2.7108688 6914712
1.0621871 0.18344566 2.7111654 6849432
-1.2923807 0.32950971 2.613754 8827332
-1.2839372 0.33040062 2.6131599 9155517
-1.2772179 0.3306978 2.6129618 7446441
-1.2140083 0.32624874 2.6159289 3490640
-1.2055646 0.32713965 2.6153347 3489615
-1.18392 0.32585451 2.6161916 4024423
-1.1748221 0.32461819 2.6170163 4416359
-1.1648322 0.32402506 2.6174119 4281967
-1.1548425 0.32343194 2.6178074 4087163
-1.1457446 0.32219562 2.6186318 4219772
-1.135041 0.32016787 2.6199841 4285818
-1.1241 0.32091054 2.619489 4417143
-1.1173806 0.32120773 2.6192908 4220788
1.0554078 0.1922017 2.7053261 6588057
1.0629001 0.19175681 2.7056227 6784666
-1.37123 0.34672138 2.6022754 8762576
-1.3637376 0.34627655 2.602572 8827854
-1.281678 0.33722773 2.6086068 9353157
-1.2747805 0.33960268 2.607023 8103862
-1.2115711 0.33515355 2.6099901 3229005
-1.2067543 0.33277926 2.6115737 3359052
-1.184099 0.33352241 2.611078 3892853
-1.1741092 0.33292922 2.6114736 4219494
-1.1641194 0.33233616 2.6118691 4217194
-1.1550214 0.33109996 2.6126935 4152181
-1.1466372 0.3312982 2.6125612 4350075
-1.1339716 0.33263454 2.61167 4613506
-1.1239817 0.33204141 2.6120656 4613760
-1.1166677 0.32951882 2.6137481 4351613
1.056299 0.20259055 2.6983976 6850197
1.0627211 0.19942483 2.7005088 6784663
-1.380507 0.35562566 2.5963371 8632014
-1.3731929 0.35310301 2.5980196 8828111
-1.3632029 0.35250989 2.5984151 8959439
-1.2807868 0.34761658 2.6016784 8958924
-1.2731162 0.34924945 2.6005895 8106169
-1.2108581 0.34346464 2.6044474 3163471
-1.1907003 0.34435615 2.6038527 1259356
-1.183386 0.34183356 2.6055353 3892073
-1.1733962 0.34124038 2.6059308 4415850
-1.1634064 0.34064725 2.6063263 4152166
-1.1534166 0.34005412 2.6067219 4217196
-1.1459242 0.3396093 2.6070185 4350068
-1.1134572 0.33768162 2.6083043 4482178
1.0566554 0.20674607 2.6956263 6980758
1.0618286 0.2085273 2.6944382 6849685
-1.3901404 0.36037442 2.5931702 8238029
-1.3801506 0.3597813 2.5935657 8697295
-1.3699825 0.36126587 2.5925756 8959183
-1.363263 0.36156306 2.5923774 8828368
-1.2725816 0.35548285 2.5964322 8565435
-1.2627699 0.35281196 2.5982137 5928062
-1.2527801 0.35221884 2.5986092 4808045
-1.2026528 0.35133097 2.5992012 3162451
-1.192663 0.35073784 2.5995967 2309467
-1.1851705 0.35029295 2.5998936 3561313
-1.1726834 0.34955147 2.6003881 4611692
-1.1626935 0.34895834 2.6007836 4414053
-1.1527038 0.34836522 2.6011791 4478053
-1.1427139 0.34777209 2.6015747 4481410
-1.132724 0.34717897 2.6019702 4547968
-1.1227341 0.3465859 2.6023657 4679550
-1.1127443 0.34599271 2.6027613 4678788
1.0625415 0.21683845 2.6888955 6848918
-1.389071 0.37284109 2.584856 7909072
-1.3815787 0.3723962 2.5851526 8632021
-1.3708751 0.37036851 2.5865049 9024976
-1.3642745 0.36928049 2.5872307 8893905
-1.2718686 0.363794 2.5908895 8173506
-1.2019398 0.35964212 2.5936584 3358798
-1.192723 0.35979101 2.5935593 3292242
-1.1694728 0.35771444 2.594944 4546413
-1.1619805 0.35726956 2.5952408 4414575
-1.1544882 0.35682473 2.5955374 4411758
-1.1296917 0.35326406 2.5979121 4679806
-1.1221994 0.35281923 2.5982087 4810620
-1.1122096 0.35222611 2.5986042 4744323
1.0657518 0.22500131 2.6834517 6979991
-1.3887146 0.37699661 2.5820847 7449807
-1.3137907 0.37254807 2.5850513 8500944
-1.2888161 0.37106529 2.5860403 8697294
-1.2813238 0.3706204 2.5863371 8828622
-1.2719287 0.37284717 2.584852 9221837
-1.2012269 0.36795315 2.5881157 3424848
-1.191237 0.36736003 2.5885115 3293008
-1.1712575 0.36617371 2.5893025 4023159
-1.1612675 0.36558059 2.5896981 4218483
-1.1537752 0.36513576 2.5899947 4215161
1.0672379 0.23257032 2.6784039 6914968
1.0739572 0.23286751 2.6782055 6980760
-1.4177927 0.38916489 2.5739696 7579079
-1.4103004 0.38872007 2.5742662 7579843
-1.4001323 0.39020464 2.573276 8039102
-1.39264 0.38975981 2.5735726 8431799
-1.2777568 0.38293883 2.5781217 8632779
-1.2729403 0.38056448 2.5797052 8959691
-1.1980165 0.37611601 2.5826719 3425108
-1.1905241 0.37567118 2.5829687 3358801
-1.1705445 0.37448487 2.5837598 4088960
-1.1605546 0.37389174 2.5841553 4153457
-1.151338 0.37404069 2.5840559 4019313
-1.1378993 0.37463495 2.5836596 4481916
-1.1329044 0.37433842 2.5838575 4547712
1.0671777 0.24162349 2.6723661 6915486
1.0746702 0.24117866 2.6726627 6981279
-1.417258 0.39539823 2.5698125 7578822
-1.4122633 0.39510164 2.5700102 7579849
-1.3869321 0.39777443 2.5682278 7972807
-1.2788278 0.38996366 2.5734367 8565964
-1.1974819 0.38234934 2.5785148 3228759
-1.1873138 0.38383397 2.5775247 3293266
-1.1771457 0.38531867 2.5765345 3751271
-1.1706046 0.3835381 2.5777221 3958908
-1.1375428 0.37879053 2.5808883 4546171
-1.132548 0.37849399 2.5810862 4481150
1.0678906 0.24993464 2.6668234 6914976
1.0753832 0.24948975 2.66712 6914976
-1.4115503 0.40341273 2.5644674 7709895
-1.3896681 0.40489796 2.563477 7645651
-1.3812243 0.40578887 2.5628829 8040403
-1.3712345 0.40519574 2.5632784 8697551
-1.3587471 0.40445432 2.5637729 8893648
-1.3487574 0.40386119 2.5641685 8697040
-1.3380539 0.40183344 2.5655208 8566226
-1.3289559 0.40059718 2.5663452 8762579
-1.2766874 0.3954055 2.5698075 8500686
-1.2688386 0.39911613 2.567333 8565713
-1.1767893 0.38947418 2.5737634 3488098
1.0686035 0.25824568 2.6612806 6981021
-1.3981717 0.41306028 2.5580335 7776193
-1.3881819 0.41246709 2.558429 7974089
-1.3781922 0.41187397 2.5588245 8301261
-1.3682023 0.41128084 2.5592201 8762575
-1.3582124 0.41068771 2.5596156 8763089
-1.3482226 0.41009459 2.5600114 8632017
-1.3382328 0.40950146 2.5604069 8631761
-1.3282429 0.40890834 2.5608025 8762323
-1.3182532 0.40831521 2.561198 8697045
-1.2683039 0.40534952 2.5631759 8893137
-1.2606333 0.40698251 2.5620868 9156049
-1.2481459 0.40624109 2.5625813 6389381
1.0620024 0.26907954 2.6540556 6981789
1.0693165 0.26655683 2.6557379 6915741
1.0769873 0.26818982 2.6546488 7046557
-1.3972806 0.42344913 2.551105 7841473
-1.3874692 0.42077824 2.5528862 8104132
-1.3782523 0.4209272 2.5527868 8300749
-1.3674895 0.41959199 2.5536773 8304337
-1.3601751 0.41706935 2.5553598 8305105
-1.3451904 0.41617963 2.555953 8435922
-1.3382928 0.41855463 2.5543692 8697298
-1.3250327 0.41707119 2.5553586 8763091
-1.3184321 0.41598311 2.5560842 8697812
-1.3067772 0.41529116 2.5565457 8763348
-1.2652718 0.41143462 2.5591176 9679831
-1.2602769 0.41113803 2.5593154 9223640
-1.2477895 0.41039661 2.5598099 7242888
1.0625371 0.27531287 2.6498985 7046300
1.0692564 0.27561006 2.6497002 7111834
-1.3967458 0.42968246 2.546948 7907010
-1.3869344 0.42701158 2.5487292 8104132
-1.3759933 0.42775419 2.548234 8366797
-1.3667765 0.42790303 2.5481348 8304087
-1.3394825 0.42419419 2.5506082 8827857
-1.3244979 0.42330447 2.5512016 9025748
-1.3176004 0.42567942 2.5496178 8698072
1.0707424 0.28317913 2.6446524 7439257
-1.4033471 0.4405162 2.5397229 8036800
-1.3969249 0.43735042 2.5418341 7971778
-1.3683828 0.43844023 2.5411074 8499401
-1.3352021 0.43507794 2.5433497 8698587
-1.3237851 0.43161562 2.5456588 8370390
-1.31879 0.43131909 2.5458565 8370647
1.0637847 0.2898573 2.6401987 7439259
1.0714552 0.29149017 2.6391096 7242907
-1.4029906 0.44467178 2.5369515 7971007
-1.3953199 0.44630465 2.5358624 7840448
-1.3851521 0.4477894 2.5348723 7906754
-1.3728429 0.44497016 2.5367525 8301772
-1.3653506 0.44452527 2.5370491 8630223
-1.3355592 0.44066814 2.5396216 8895195
1.0721682 0.29980132 2.6335669 7112344
1.0796608 0.29935643 2.6338634 7112604
-1.3922879 0.45238975 2.5318043 7905984
-1.3673134 0.4509069 2.5327933 8367816
1.0630696 0.31078336 2.6262429 6850200
1.0728811 0.30811235 2.6280241 6981531
1.0801954 0.30558977 2.6297064 7113373
1.0562901 0.31953934 2.6204033 7046294
1.0636044 0.31701669 2.6220858 6915479
1.0710968 0.3165718 2.6223824 6915738
1.057003 0.32785043 2.6148605 6915483
1.0643172 0.32532778 2.6165431 7046554
1.0718096 0.32488295 2.6168396 6981276
1.0650302 0.33363894 2.6110003 6915228
1.0727009 0.33527181 2.6099112 6915742
1.0732355 0.34150514 2.6057541 6850715
1.0689535 0.35011289 2.6000137 6850459
1.0739485 0.34981629 2.6002114 6850716
1.0696664 0.35842392 2.594471 6915995
1.0763857 0.35872111 2.5942726 6981020
1.0678819 0.36688337 2.5888293 6981528
1.0770986 0.3670322 2.5887299 7112090
1.0693679 0.3744525 2.5837812 6915992
1.0778116 0.37534341 2.5831871 7046811
1.0693078 0.38350561 2.5777438 6915994
1.0792975 0.38291249 2.5781393 7112604
1.0723399 0.38959065 2.5736856 7112604
1.0807836 0.39048156 2.5730915 7112349
1.0830426 0.39730868 2.5685384 7177629
1.0737658 0.40621284 2.5626001 7046299
1.0789391 0.40799406 2.5614121 7046299
-1.3119016 0.10484901 2.787622 3820629
1.0233707 -0.033804208 2.880091 6784912
-1.3113629 0.11112967 2.7834334 3886674
1.0239094 -0.027523547 2.8759024 6850193
1.0289422 -0.027822405 2.8761017 6850192
-1.3106445 0.11950412 2.7778482 3755855
1.0230099 -0.018351704 2.8697855 6915471
-1.3099262 0.12787834 2.7722635 4018259
1.0204928 -0.0083824098 2.863137 6980237
-1.3093873 0.13415912 2.7680748 4214870
1.0260645 -0.0024004281 2.8591475 7242900
1.0310973 -0.0026992857 2.8593469 7177109
-1.3000414 0.14482692 2.7609603 3886671
-1.291773 0.14293322 2.7622232 3623240
1.0266033 0.0038803518 2.854959 7242640
1.0343322 0.0055256188 2.8538616 7046032
-1.3079506 0.15090778 2.7569051 4412247
-1.3002217 0.15255323 2.7558076 3952211
-1.2901559 0.15195557 2.7562063 3754315
-1.2826065 0.15150735 2.756505 3622216
1.0373875 0.01165691 2.8497725 6980493
-1.2971665 0.15868458 2.7517185 3951698
-1.2894375 0.16032991 2.7506213 3885645
-1.2817085 0.16197523 2.7495241 3687754
1.0357689 0.022274286 2.8426917 6915722
-1.2980061 0.16855422 2.7451365 4280916
-1.2887192 0.16870424 2.7450364 4016206
-1.2788329 0.16601297 2.7468312 3621706
1.0391834 0.032592803 2.8358102 7110544
-1.2972877 0.17692867 2.7395515 4345686
-1.2880008 0.17707857 2.7394514 3950671
-1.277935 0.17648098 2.73985 3556426
-1.2948318 0.18590114 2.7335677 4345692
-1.2897987 0.18560234 2.733767 4148821
-1.2797329 0.18500468 2.7341654 3689037
1.038703 0.046649724 2.8264356 6981017
-1.2941134 0.19427559 2.7279825 4345183
-1.2857851 0.19307968 2.7287803 4017237
-1.2764982 0.19322976 2.7286801 3688269
1.0386424 0.055771738 2.8203521 6980502
-1.293395 0.2026498 2.7223978 4411485
-1.2850667 0.20145389 2.7231956 4082772
-1.2759595 0.19951043 2.7244916 3754061
-1.2680508 0.20324925 2.721998 3556679
1.0393608 0.064145952 2.8147671 7046029
-1.2960918 0.2105256 2.7171454 4478559
1.0476284 0.072072178 2.8094811 6914954
-1.2971708 0.21760377 2.7124248 4741731
-1.150857 0.21312502 2.7154117 4745321
1.0483468 0.080446392 2.8038962 6915989
-1.3014854 0.22627684 2.7066407 3893091
-1.2935768 0.2300159 2.7041471 4611171
1.0442119 0.091213256 2.7967157 6979731
1.051402 0.086577743 2.7998073 6980501
-1.2922592 0.235549 2.7004571 4872803
-1.2853091 0.23794195 2.6988611 4478557
-1.2605036 0.23226073 2.7026501 3359567
1.0447507 0.097493976 2.7925272 6980242
-1.2898033 0.24452147 2.6944733 4741992
-1.2849499 0.24212912 2.6960688 4478048
-1.2597853 0.24063501 2.6970651 3360081
-1.0530766 0.2325705 2.7024434 2569537
1.045469 0.10586825 2.7869422 7045784
-1.2890849 0.25289592 2.6888883 4937068
-1.0502011 0.23660824 2.6997507 2569535
-1.0397761 0.24019781 2.6973567 2569788
-0.73061109 0.2176331 2.7124052 2899261
-0.72210312 0.2185308 2.7118065 2765621
1.0411544 0.11454144 2.781158 7111061
-1.288187 0.26336381 2.6819072 5135985
-1.2835132 0.25887778 2.6848989 4742248
-1.0768045 0.25081334 2.6902771 2306351
-1.0717716 0.25051448 2.6904764 2502966
-1.0369004 0.24423555 2.694664 2569530
-0.72216374 0.22765276 2.705723 2829876
-0.61880934 0.22362056 2.7084122 4090002
1.0469058 0.12261698 2.7757723 6914706
-1.2876482 0.26964459 2.6777184 5005420
-0.72899479 0.23647538 2.6998394 2894902
1.0476241 0.13099131 2.7701874 6849168
-1.2968161 0.28071013 2.6703386 6454146
-1.2917831 0.28041133 2.6705379 5727102
-1.2416335 0.27532956 2.6739271 3424332
1.0483425 0.1393657 2.7646027 6718100
-1.2962773 0.28699091 2.6661501 6983048
-1.2895068 0.28729042 2.6659503 5595489
-0.70976317 0.25427184 2.6879706 2699576
-0.64864916 0.24924043 2.6913261 4943494
-0.63870311 0.24724707 2.6926556 4616844
-0.63193256 0.24754646 2.6924558 4420470
-0.62012923 0.24754712 2.6924555 4801391
1.0492404 0.14983365 2.7576213 7045522
1.0540936 0.14744118 2.7592168 6979731
-1.2971767 0.29616269 2.6600332 7643559
-1.2907056 0.29297289 2.6621606 5859950
-1.2403765 0.28998467 2.6641536 3424843
-0.7092244 0.26055256 2.6837821 2633788
-0.70149541 0.26219794 2.6826847 2765375
-0.68891311 0.26145086 2.683183 3419978
-0.65871567 0.25965795 2.6843786 4942725
-0.64613342 0.25891086 2.6848769 5009025
-0.63876361 0.25636902 2.6865721 4944003
-0.6285181 0.25786498 2.6855743 4809596
-0.61941087 0.25592145 2.6868706 4803965
1.057508 0.15775976 2.7523353 7110800
-1.2948406 0.30373958 2.6549802 7382946
-1.2346252 0.29806015 2.6587679 3293769
-0.70850611 0.26892683 2.6781971 2436665
-0.70113623 0.26638505 2.6798923 2633533
-0.65727824 0.26658663 2.6797578 4811911
-0.6481111 0.26534101 2.6805885 5008774
-0.63804525 0.26474336 2.6809871 4944001
-0.6279794 0.26414564 2.6813858 4744061
-0.6179136 0.26354799 2.6817842 4476801
-0.60874647 0.26230231 2.682615 4743810
-0.60047799 0.26040861 2.6838779 4746366
1.0588257 0.16329274 2.7486453 7045268
-1.2890892 0.31181517 2.6495945 6716294
-1.2335477 0.31062171 2.6503904 3229010
-0.70778769 0.27730122 2.6726122 2633783
-0.65655988 0.27496102 2.6741729 4942728
-0.64739275 0.27371541 2.6750035 5074057
-0.64002287 0.27117357 2.6766987 5009031
-0.62648207 0.27177241 2.6762993 4743299
-0.61719519 0.27192244 2.6761994 4609411
1.0513954 0.17495665 2.7408667 6914710
1.0562487 0.17256424 2.7424622 6914711
-1.2883708 0.32018951 2.6440096 7570823
-1.2277964 0.31869718 2.6450047 3425103
-0.70796806 0.28502747 2.6674595 2698807
-0.69969952 0.28313377 2.6687224 3420218
-0.64667439 0.28208974 2.6694186 5663875
-0.63930452 0.2795479 2.671114 5598084
-0.62576371 0.28014675 2.6707144 5202798
-0.61899328 0.2804462 2.6705148 5001078
-0.60659057 0.27760556 2.6724093 4940417
1.0519342 0.18123743 2.7366779 6849174
1.056967 0.18093857 2.7368772 6914711
-1.2878321 0.32647023 2.6398211 7180439
-0.71390033 0.29449818 2.6611433 2829639
-0.7072497 0.29340181 2.6618745 2961991
1.0510348 0.19040921 2.7305613 6783638
1.0576854 0.18931291 2.7312922 6849176
-1.2819014 0.33663937 2.633039 5740698
-1.2766888 0.33843407 2.6318421 5006743
1.0584037 0.19768724 2.7257073 6652825
-1.2813627 0.34292004 2.6288505 7905697
-1.27615 0.34471485 2.6276534 5400964
-1.2256414 0.34382018 2.6282501 3295056
1.0639753 0.20366916 2.7217178 6719128
-1.2831607 0.35144386 2.6231658 7450551
-1.2736943 0.35368744 2.6216695 5466246
-1.2651863 0.35458508 2.6210709 4678788
-1.230315 0.34830627 2.6252584 3427157
-1.2252822 0.34800741 2.6254575 3295825
1.0650529 0.21623066 2.7133405 6915223
-1.2720174 0.36340764 2.6151869 6126197
-1.2619516 0.36281005 2.6155856 5069659
-1.2195308 0.35608295 2.6200719 3294289
1.0655917 0.22251144 2.709152 6848407
-1.2741745 0.36774424 2.6122949 6786188
-1.2188125 0.36445722 2.6144872 3687249
-1.1584175 0.36087134 2.6168785 4478838
-1.1508682 0.36042312 2.6171775 4546180
-1.1433189 0.35997489 2.6174765 4614273
1.0661304 0.22879216 2.7049632 7045271
-1.2784891 0.37641737 2.6065106 9417919
-1.2736357 0.37402502 2.6081061 7313314
-1.1580583 0.36505857 2.6140862 4413308
-1.1530253 0.36475977 2.6142852 4413827
-1.1404431 0.36401269 2.6147835 4547199
-1.1301978 0.36550859 2.613786 4875388
-1.1201319 0.36491093 2.6141844 4875392
1.0650514 0.23587039 2.7002428 6914200
-1.2777708 0.3847917 2.6009259 9482441
-1.2730969 0.3803058 2.6039176 8234434
-1.2123429 0.38090703 2.6035166 3622741
-1.1573399 0.3734329 2.6085012 4085119
1.0657698 0.24424466 2.6946578 6849690
1.0722411 0.24105492 2.6967852 6915738
-1.2797484 0.39122197 2.5966375 8892619
-1.2118042 0.38718787 2.5993278 3426135
-1.2015586 0.38868377 2.59833 3228245
-1.1515886 0.38150844 2.6031156 4217464
1.0582199 0.25451288 2.6878099 6848926
1.0655895 0.2519711 2.6895051 6849438
-1.2799287 0.39894828 2.5914848 8565455
-1.2011994 0.39287099 2.5955377 3359574
1.0663079 0.26034543 2.6839201 6914974
-1.2756157 0.40991482 2.5841711 8630737
1.0678052 0.26797208 2.678834 6980765
-1.3654896 0.42366788 2.5749989 8304850
-1.3604567 0.42336908 2.5751982 8370387
-1.3453581 0.42247263 2.5757961 8827858
-1.3403251 0.42217383 2.5759954 8762579
-1.2650111 0.41559795 2.5803809 8960688
1.0652281 0.27724347 2.6726506 6915229
-1.3683661 0.42945006 2.5711427 8239827
-1.3574016 0.42950043 2.5711093 8566995
-1.3446398 0.43084696 2.5702112 8959698
-1.3397864 0.42845461 2.5718067 8894675
1.0676841 0.28621605 2.6666667 7111325
-1.3969464 0.44026539 2.56393 8038853
-1.3876598 0.44041535 2.5638299 8235465
-1.3791517 0.44131306 2.5632312 8435153
-1.3694452 0.43652824 2.5664222 8435671
-1.3559043 0.43712708 2.5660229 8697809
-1.3475162 0.43662909 2.566355 8698322
-1.3367312 0.4345859 2.5677176 8698067
1.0618117 0.29638454 2.6598854 7308188
1.0682827 0.29319468 2.6620126 7307931
-1.4039571 0.44699433 2.5594423 7907012
-1.3962282 0.44863972 2.5583451 7972806
-1.3870611 0.44739398 2.5591757 8169675
-1.353628 0.44400612 2.5614352 8894674
1.0623504 0.30266532 2.6556966 7308186
1.0698997 0.3022171 2.6559956 7177626
-1.3953302 0.45910761 2.5513639 7840962
-1.3881401 0.45447227 2.5544553 8104658
1.0630687 0.31103966 2.6501117 7111575
1.070618 0.31059143 2.6504107 6981271
1.053901 0.32210514 2.6427319 7177112
1.0612706 0.31956336 2.6444271 7046038
1.0542601 0.32629237 2.6399395 7045782
1.0619889 0.32793769 2.6388421 7046039
1.0654035 0.33825627 2.6319606 6784411
1.0659422 0.34453699 2.6277721 6981274
1.0736711 0.34618238 2.6266747 6850458
1.066481 0.35081777 2.6235833 6981529
1.0733112 0.35181507 2.6229181 6850457
1.0673789 0.36128572 2.6166022 6850714
1.0724117 0.36098686 2.6168015 6850204
1.0680972 0.36966005 2.6110172 6784921
1.0729505 0.36726764 2.6126127 6915996
1.0688156 0.37803438 2.6054323 6785430
1.0695339 0.38640872 2.5998473 6850711
1.0743872 0.38401631 2.6014428 6916247
1.0754647 0.39657781 2.5930655 6981532
1.0810363 0.40255973 2.5890763 6915484
1.0860693 0.40226093 2.5892754 7046556
1.0815752 0.40884051 2.5848875 6981021
1.0900832 0.40973815 2.5842888 7046555
-1.3142 0.10888538 2.8089695 3688269
1.0260261 -0.03006199 2.9016347 6718608
-1.3138381 0.11310408 2.8061562 3754317
1.026569 -0.023733884 2.8974144 6850194
-1.3154689 0.12380156 2.799022 3624266
-1.3026108 0.1251584 2.7981172 3425862
-1.2951853 0.12259725 2.7998252 3162441
1.0224028 -0.012885839 2.8901799 6850190
1.0271118 -0.017405778 2.8931942 6850448
-1.3018869 0.13359591 2.79249 3491908
-1.3114859 0.14052621 2.787868 3886414
-1.3013442 0.13992402 2.7882695 3557444
1.0287403 0.001578778 2.8805332 7111571
-1.3134785 0.14700493 2.7835474 4084050
1.0319996 0.0098658502 2.8750067 7046028
1.0350779 0.016043454 2.8708868 6849418
1.0420802 0.018454403 2.8692784 6915467
-1.3065981 0.16779771 2.7696805 4083282
1.0359826 0.026590377 2.8638527 6718602
